# .PCD v0.7 - Point Cloud Data file format
VERSION 0.7
FIELDS x y z intensity normal_x normal_y normal_z curvature
SIZE 4 4 4 4 4 4 4 4
TYPE F F F F F F F F
COUNT 1 1 1 1 1 1 1 1
WIDTH 1195
HEIGHT 1
VIEWPOINT 0 0 0 1 0 0 0
POINTS 1195
DATA ascii
-1.647379 1.63872 1.650906 86.49296 0 0 0 0
-1.547458 1.632271 1.649969 84.09876 0 0 0 0
-1.450997 1.630233 1.652514 89.08696 0 0 0 0
-1.351533 1.630034 1.64778 89.03735 0 0 0 0
-1.247621 1.625747 1.647662 90.00766 0 0 0 0
-1.148803 1.622947 1.648374 87.62909 0 0 0 0
-1.050919 1.619699 1.644771 86.85769 0 0 0 0
-0.9539452 1.618058 1.645983 86.325 0 0 0 0
-0.8484091 1.616412 1.645639 86.57353 0 0 0 0
-0.751366 1.616659 1.641976 87.46706 0 0 0 0
-0.6557238 1.615664 1.643767 90.6076 0 0 0 0
-0.5543447 1.617995 1.644677 87.35849 0 0 0 0
-0.4547969 1.619707 1.643033 91.5 0 0 0 0
-0.3461375 1.617663 1.65096 94.72603 0 0 0 0
-0.2539779 1.614981 1.646394 91.62712 0 0 0 0
-0.1599514 1.613893 1.652102 93.42 0 0 0 0
-0.05058231 1.612032 1.648758 93.44898 0 0 0 0
0.05108761 1.609465 1.648735 90.43903 0 0 0 0
0.1462418 1.607285 1.653398 93.84 0 0 0 0
0.2450534 1.605446 1.661564 98.35714 0 0 0 0
0.3557929 1.602067 1.67312 104 0 0 0 0
2.88905 1.669179 1.645612 78 0 0 0 0
2.974547 1.670049 1.642126 69.5 0 0 0 0
3.067807 1.659493 1.64289 55.25 0 0 0 0
3.15724 1.673871 1.642129 61.5 0 0 0 0
3.256405 1.651998 1.641229 59.7 0 0 0 0
3.357288 1.665749 1.640993 55.92308 0 0 0 0
3.448949 1.659223 1.639005 61.11111 0 0 0 0
3.551519 1.64533 1.638749 61.3 0 0 0 0
3.656488 1.646505 1.636051 65.26316 0 0 0 0
3.748341 1.65058 1.637614 68.5 0 0 0 0
3.842757 1.655115 1.635069 62.47826 0 0 0 0
3.951992 1.658411 1.63686 64.4 0 0 0 0
4.062166 1.651675 1.63539 64.5625 0 0 0 0
4.146747 1.650078 1.635336 65.10526 0 0 0 0
4.252725 1.636779 1.63088 64 0 0 0 0
4.320651 1.669495 1.626154 73.28571 0 0 0 0
-4.709676 1.755205 1.632725 13.22222 0 0 0 0
-4.647097 1.741159 1.643209 51.29167 0 0 0 0
-4.542324 1.742693 1.656172 74.41758 0 0 0 0
-4.448728 1.748322 1.65318 67.55173 0 0 0 0
-4.347466 1.74524 1.648138 72.37634 0 0 0 0
-4.250566 1.742228 1.649204 73.48485 0 0 0 0
-4.145262 1.737745 1.652859 72.70588 0 0 0 0
-4.052173 1.736786 1.651353 72.59406 0 0 0 0
-3.956566 1.738944 1.649652 81.21568 0 0 0 0
-3.85252 1.734286 1.655629 82.09615 0 0 0 0
-3.746896 1.733074 1.650926 81.41573 0 0 0 0
-3.648042 1.725181 1.647502 81.12727 0 0 0 0
-3.548433 1.727091 1.641405 83.57 0 0 0 0
-3.453081 1.728688 1.638812 89.58823 0 0 0 0
-3.354273 1.720172 1.64006 91.17949 0 0 0 0
-3.253297 1.718224 1.640582 95.275 0 0 0 0
-3.157142 1.719091 1.64112 90.57377 0 0 0 0
-3.047212 1.716122 1.637033 96.34921 0 0 0 0
-2.94821 1.715999 1.642298 91.08108 0 0 0 0
-2.849999 1.71752 1.633918 97.25 0 0 0 0
-2.748603 1.714017 1.635233 106.6667 0 0 0 0
-2.650607 1.717461 1.635709 98.05556 0 0 0 0
-2.560235 1.716333 1.634208 101.0556 0 0 0 0
-2.447614 1.710724 1.635773 106.5714 0 0 0 0
-2.345859 1.712436 1.623497 79.33334 0 0 0 0
-2.256955 1.70864 1.638082 96.41666 0 0 0 0
-2.14659 1.710109 1.631901 105.125 0 0 0 0
-2.065015 1.707585 1.625589 83.66666 0 0 0 0
-1.988801 1.707217 1.626135 102 0 0 0 0
-1.888136 1.700691 1.619742 98 0 0 0 0
2.841387 1.731031 1.639385 49 0 0 0 0
2.97735 1.730242 1.640231 65 0 0 0 0
3.089426 1.735689 1.640576 64 0 0 0 0
3.154766 1.741131 1.637496 60.33333 0 0 0 0
3.254475 1.740937 1.636563 56.05882 0 0 0 0
3.35462 1.75372 1.637792 66.36364 0 0 0 0
3.45091 1.754836 1.635519 65.52174 0 0 0 0
3.549251 1.749177 1.635387 65.90476 0 0 0 0
3.656674 1.732529 1.636856 68.38461 0 0 0 0
3.752235 1.758885 1.632877 67.6087 0 0 0 0
3.844588 1.756313 1.633049 64.04166 0 0 0 0
3.947942 1.742926 1.633376 65 0 0 0 0
4.057001 1.749737 1.631892 66.73684 0 0 0 0
4.150721 1.752812 1.634701 65.61111 0 0 0 0
4.24275 1.73368 1.634251 60.66667 0 0 0 0
4.339131 1.749762 1.630857 59 0 0 0 0
4.43785 1.769309 1.624851 85 0 0 0 0
-4.656885 1.824146 1.60584 57 0 0 0 0
-4.553409 1.809236 1.631039 80.5 0 0 0 0
-4.479566 1.805724 1.632459 75 0 0 0 0
-4.39162 1.802435 1.631373 67 0 0 0 0
-4.259242 1.810765 1.608399 109 0 0 0 0
-4.147022 1.821762 1.601547 71 0 0 0 0
-3.734732 1.802507 1.609055 73 0 0 0 0
2.935587 1.856614 1.628213 56 0 0 0 0
3.065666 1.839747 1.636108 60.4 0 0 0 0
3.162937 1.849826 1.635185 64.27273 0 0 0 0
3.257547 1.850163 1.6344 63.2 0 0 0 0
3.35166 1.850572 1.634895 64.5 0 0 0 0
3.452008 1.845601 1.630939 63.73333 0 0 0 0
3.553463 1.836458 1.634958 67 0 0 0 0
3.643938 1.846097 1.630931 63.48 0 0 0 0
3.747933 1.850105 1.631909 65 0 0 0 0
3.832698 1.844008 1.630183 63.5 0 0 0 0
3.947848 1.853685 1.632523 60.36842 0 0 0 0
4.043874 1.847519 1.631374 65.38889 0 0 0 0
4.147681 1.862124 1.630596 62.41667 0 0 0 0
4.248556 1.841818 1.631214 62.10526 0 0 0 0
4.350053 1.867224 1.632788 56.66667 0 0 0 0
4.442905 1.8536 1.631328 51.375 0 0 0 0
4.538741 1.88861 1.630498 52.4 0 0 0 0
4.619853 1.876204 1.622976 101.5 0 0 0 0
3.050172 1.918781 1.628513 60.66667 0 0 0 0
3.164402 1.929207 1.628861 58.2 0 0 0 0
3.258947 1.937197 1.632586 61.6 0 0 0 0
3.336749 1.95547 1.626366 49.6 0 0 0 0
3.45515 1.943127 1.627401 58.875 0 0 0 0
3.547079 1.932956 1.629598 63.90909 0 0 0 0
3.632816 1.956677 1.629019 62.33333 0 0 0 0
3.745671 1.949975 1.632164 63 0 0 0 0
3.849929 1.938007 1.629369 62.0625 0 0 0 0
3.949113 1.94994 1.631696 60.5625 0 0 0 0
4.059206 1.957083 1.629903 62.45454 0 0 0 0
4.143008 1.955443 1.631844 59.58823 0 0 0 0
4.258363 1.941298 1.629835 56.66667 0 0 0 0
4.352322 1.955787 1.632598 60.42857 0 0 0 0
4.451951 1.956947 1.633263 49.54546 0 0 0 0
4.521801 1.958979 1.632049 36.83333 0 0 0 0
4.631204 1.958812 1.629851 74.5 0 0 0 0
2.838409 2.038265 1.628917 34 0 0 0 0
3.009235 2.017926 1.625855 43.5 0 0 0 0
3.166114 2.061824 1.621824 51 0 0 0 0
3.294441 2.077651 1.624481 50 0 0 0 0
3.31758 2.061102 1.621903 42.66667 0 0 0 0
3.457746 2.045928 1.625809 56.9 0 0 0 0
3.566313 2.051152 1.630517 57.42857 0 0 0 0
3.642778 2.052438 1.629314 63.27273 0 0 0 0
3.743573 2.030497 1.629485 60.33333 0 0 0 0
3.84858 2.056608 1.629961 53.6 0 0 0 0
3.967327 2.052289 1.630393 59.5 0 0 0 0
4.066175 2.060866 1.628846 57.83333 0 0 0 0
4.141777 2.029938 1.629106 58.66667 0 0 0 0
4.256982 2.053188 1.630715 56.71429 0 0 0 0
4.342512 2.048254 1.633653 59.5 0 0 0 0
4.440432 2.039315 1.633005 58.16667 0 0 0 0
4.540826 2.045949 1.634069 39.875 0 0 0 0
4.633245 2.047189 1.627533 49.83333 0 0 0 0
4.748249 2.050346 1.625534 74.5 0 0 0 0
2.647293 2.150238 1.640526 7 0 0 0 0
2.820784 2.178563 1.636486 12 0 0 0 0
2.987417 2.159368 1.631325 25 0 0 0 0
3.089586 2.144614 1.628376 48 0 0 0 0
3.163892 2.167963 1.625549 30 0 0 0 0
3.252971 2.144337 1.627964 49 0 0 0 0
3.345732 2.167042 1.62402 41 0 0 0 0
3.434012 2.127567 1.623465 53.5 0 0 0 0
3.539939 2.154086 1.62653 42.16667 0 0 0 0
3.661766 2.142722 1.628064 51 0 0 0 0
3.750899 2.135318 1.629922 44.16667 0 0 0 0
3.84828 2.163244 1.628504 49.5 0 0 0 0
3.950088 2.143032 1.629746 49.3 0 0 0 0
4.051581 2.148083 1.632 55.44444 0 0 0 0
4.150374 2.137395 1.632232 53.7 0 0 0 0
4.241196 2.139615 1.631076 53.66667 0 0 0 0
4.350967 2.149354 1.630742 48.09091 0 0 0 0
4.446205 2.158283 1.631438 51.2 0 0 0 0
4.54539 2.160917 1.632436 33.91667 0 0 0 0
4.651527 2.145387 1.632349 48.375 0 0 0 0
4.736053 2.156405 1.631182 54.66667 0 0 0 0
4.988734 2.168992 1.63553 28 0 0 0 0
3.066046 2.293802 1.633959 23.5 0 0 0 0
3.220714 2.290066 1.636355 32.5 0 0 0 0
3.382408 2.252459 1.632235 38 0 0 0 0
3.425321 2.267649 1.629357 44 0 0 0 0
3.544656 2.257671 1.628826 40.28571 0 0 0 0
3.633087 2.258136 1.625629 49.5 0 0 0 0
3.762772 2.230948 1.628208 46.28571 0 0 0 0
3.851262 2.259216 1.628147 46 0 0 0 0
3.932058 2.24961 1.628743 44 0 0 0 0
4.045127 2.244037 1.630393 51.1 0 0 0 0
4.154158 2.242413 1.628248 59.2 0 0 0 0
4.243346 2.25297 1.627865 56.55556 0 0 0 0
4.341569 2.239449 1.631286 57.14286 0 0 0 0
4.462421 2.266467 1.62841 52.42857 0 0 0 0
4.546506 2.254157 1.632131 32.375 0 0 0 0
4.663816 2.262315 1.634306 25.33333 0 0 0 0
4.729246 2.231421 1.639856 38.33333 0 0 0 0
4.839265 2.253466 1.632577 35.8 0 0 0 0
4.966127 2.28942 1.620535 32 0 0 0 0
5.04926 2.258435 1.635384 30 0 0 0 0
2.661273 2.392315 1.64044 19 0 0 0 0
2.768435 2.378043 1.636931 28 0 0 0 0
3.040028 2.314628 1.631834 20 0 0 0 0
3.184994 2.317356 1.633474 29 0 0 0 0
3.243392 2.339821 1.633582 23.66667 0 0 0 0
3.367454 2.307566 1.624957 43 0 0 0 0
3.424775 2.342978 1.633535 25 0 0 0 0
3.530009 2.367928 1.623937 44 0 0 0 0
3.653535 2.357066 1.630622 34.66667 0 0 0 0
3.705755 2.359954 1.630526 37.5 0 0 0 0
3.863228 2.332886 1.628476 41.66667 0 0 0 0
3.943105 2.335832 1.627136 45.33333 0 0 0 0
4.043478 2.344502 1.625309 52.33333 0 0 0 0
4.145201 2.355433 1.626673 48.3 0 0 0 0
4.252346 2.34262 1.625172 53 0 0 0 0
4.349988 2.337547 1.6301 50.875 0 0 0 0
4.456403 2.356908 1.625123 46.57143 0 0 0 0
4.561168 2.344603 1.634972 32.375 0 0 0 0
4.646652 2.344346 1.637929 37.66667 0 0 0 0
4.731058 2.357839 1.632683 30.33333 0 0 0 0
4.865884 2.367884 1.629788 33 0 0 0 0
4.919051 2.351738 1.632014 35 0 0 0 0
5.092926 2.397251 1.641064 27 0 0 0 0
5.120176 2.395818 1.624809 32 0 0 0 0
2.877721 2.459863 1.641733 18.66667 0 0 0 0
2.950606 2.41949 1.640365 14 0 0 0 0
3.062078 2.460811 1.630926 17 0 0 0 0
3.137071 2.451435 1.645014 13 0 0 0 0
3.28067 2.483022 1.636109 9.666667 0 0 0 0
3.336922 2.4602 1.629581 19 0 0 0 0
3.475669 2.451156 1.635865 17.66667 0 0 0 0
3.537914 2.454199 1.628852 33 0 0 0 0
3.652886 2.427494 1.633316 28.5 0 0 0 0
3.746156 2.459529 1.625375 44 0 0 0 0
3.942046 2.433502 1.622305 42.25 0 0 0 0
4.058634 2.433218 1.621655 43 0 0 0 0
4.152641 2.452852 1.620951 52.5 0 0 0 0
4.257787 2.441442 1.630161 55.5 0 0 0 0
4.339426 2.440541 1.624093 54.25 0 0 0 0
4.448375 2.454532 1.627038 56.33333 0 0 0 0
4.544254 2.453251 1.62905 36.5 0 0 0 0
4.666874 2.459391 1.639518 36 0 0 0 0
4.740078 2.459994 1.626101 33.5 0 0 0 0
4.829943 2.453907 1.626108 26 0 0 0 0
4.916998 2.46754 1.623903 33 0 0 0 0
5.058399 2.445951 1.637774 30.66667 0 0 0 0
5.279434 2.40057 1.634276 54 0 0 0 0
3.236342 2.553672 1.636322 9 0 0 0 0
3.428039 2.52407 1.635219 10 0 0 0 0
3.50307 2.508017 1.629164 11 0 0 0 0
3.769312 2.53562 1.627514 30 0 0 0 0
4.005939 2.544202 1.639353 37 0 0 0 0
4.137399 2.568001 1.609842 49.66667 0 0 0 0
4.245401 2.538651 1.624849 53.28571 0 0 0 0
4.332865 2.521834 1.621635 41.75 0 0 0 0
4.454716 2.56837 1.62433 51.16667 0 0 0 0
4.576124 2.556475 1.630619 29.2 0 0 0 0
4.663639 2.540072 1.633174 33.66667 0 0 0 0
4.710863 2.53586 1.623538 35.5 0 0 0 0
4.841169 2.525503 1.635729 12.66667 0 0 0 0
4.968205 2.537869 1.624928 31.75 0 0 0 0
5.078137 2.56601 1.632805 30.33333 0 0 0 0
5.156947 2.560536 1.641833 35.66667 0 0 0 0
5.389802 2.553335 1.619084 46 0 0 0 0
2.590088 2.644768 1.630508 32 0 0 0 0
2.836472 2.686458 1.626283 36.5 0 0 0 0
3.061859 2.696187 1.630548 29 0 0 0 0
3.153525 2.631712 1.632868 11 0 0 0 0
3.296786 2.691078 1.629622 13 0 0 0 0
3.359601 2.648096 1.6418 14 0 0 0 0
3.404528 2.651182 1.625318 13 0 0 0 0
3.554142 2.654697 1.637143 14.5 0 0 0 0
3.647124 2.652773 1.62409 12 0 0 0 0
3.758385 2.618449 1.627057 10 0 0 0 0
3.870086 2.662313 1.624586 11.5 0 0 0 0
3.959534 2.665731 1.622722 34.4 0 0 0 0
4.099156 2.681218 1.620529 34 0 0 0 0
4.193012 2.625487 1.605409 48 0 0 0 0
4.260842 2.671496 1.61866 50.5 0 0 0 0
4.348229 2.634307 1.628642 53 0 0 0 0
4.443234 2.677936 1.635608 52 0 0 0 0
4.54028 2.674864 1.619926 36.66667 0 0 0 0
4.634023 2.63041 1.634504 33 0 0 0 0
4.739529 2.652063 1.631446 31.42857 0 0 0 0
4.841208 2.647918 1.636133 30 0 0 0 0
4.935311 2.664745 1.630841 17 0 0 0 0
5.02161 2.689327 1.632512 30 0 0 0 0
5.165064 2.655845 1.630759 36.25 0 0 0 0
5.249941 2.645035 1.623471 47.25 0 0 0 0
5.336683 2.650409 1.627658 48 0 0 0 0
5.459705 2.673417 1.626565 41.5 0 0 0 0
5.669195 2.666003 1.634935 40 0 0 0 0
-3.230922 2.78783 1.622603 56.2 0 0 0 0
-3.13272 2.789502 1.614553 62.5 0 0 0 0
-3.024685 2.783451 1.612602 56.2 0 0 0 0
-2.954104 2.77906 1.613125 48.375 0 0 0 0
-2.842031 2.77878 1.614809 60.09091 0 0 0 0
-2.747113 2.775396 1.615217 60.53333 0 0 0 0
-2.63909 2.774387 1.6171 59.21429 0 0 0 0
-2.536882 2.771597 1.61788 56.41177 0 0 0 0
-2.448832 2.769132 1.617681 51.15385 0 0 0 0
-2.35578 2.764156 1.618433 53.95238 0 0 0 0
-2.258978 2.754809 1.61706 50.05 0 0 0 0
-2.15918 2.753669 1.617976 48.64706 0 0 0 0
-2.05677 2.748757 1.617001 40.72727 0 0 0 0
-1.961704 2.760812 1.620018 36.57143 0 0 0 0
-1.849939 2.765602 1.608683 44 0 0 0 0
-1.690799 2.781704 1.61115 59 0 0 0 0
2.859774 2.781044 1.63243 27 0 0 0 0
3.056371 2.756954 1.628479 28.5 0 0 0 0
3.349483 2.727658 1.621344 16 0 0 0 0
3.479299 2.749902 1.639787 9 0 0 0 0
3.60129 2.713795 1.620743 12 0 0 0 0
3.750623 2.762147 1.636852 12.66667 0 0 0 0
3.835624 2.77188 1.631219 11.66667 0 0 0 0
3.922047 2.763459 1.635678 26 0 0 0 0
4.039572 2.736874 1.616763 37.25 0 0 0 0
4.28023 2.725747 1.622509 42 0 0 0 0
4.376481 2.774109 1.623484 46 0 0 0 0
4.445807 2.73305 1.622144 48.75 0 0 0 0
4.553587 2.756971 1.626547 43.25 0 0 0 0
4.675947 2.730064 1.627518 28 0 0 0 0
4.730774 2.755817 1.630199 34.6 0 0 0 0
4.854257 2.754584 1.628447 42.25 0 0 0 0
4.936384 2.738069 1.627697 35.66667 0 0 0 0
5.061279 2.786557 1.633037 42.5 0 0 0 0
5.132495 2.777662 1.636931 46 0 0 0 0
5.260811 2.717513 1.619406 44 0 0 0 0
5.401349 2.792534 1.623201 40 0 0 0 0
5.541425 2.782666 1.627215 13 0 0 0 0
-3.917643 2.85871 1.628264 55 0 0 0 0
-3.72966 2.848817 1.625607 37 0 0 0 0
-3.642451 2.873831 1.626917 39.5 0 0 0 0
-3.559465 2.853422 1.628766 44 0 0 0 0
-3.43935 2.859162 1.628426 44 0 0 0 0
-3.334675 2.852094 1.630247 34 0 0 0 0
-3.243894 2.849355 1.624508 56.33333 0 0 0 0
-3.137148 2.84849 1.622222 63.81818 0 0 0 0
-3.057073 2.848357 1.619648 62.31579 0 0 0 0
-2.958077 2.861697 1.616605 61.25806 0 0 0 0
-2.856412 2.854777 1.615825 61.73333 0 0 0 0
-2.75043 2.848564 1.616148 59.76191 0 0 0 0
-2.660016 2.852176 1.616799 56.22727 0 0 0 0
-2.547632 2.856691 1.617444 59.81818 0 0 0 0
-2.446713 2.851209 1.613225 55.90909 0 0 0 0
-2.348408 2.855465 1.610262 58.04348 0 0 0 0
-2.251411 2.85196 1.61244 55.83333 0 0 0 0
-2.154393 2.847273 1.613924 47.57143 0 0 0 0
-2.060735 2.84701 1.613105 47.25 0 0 0 0
-1.963882 2.862681 1.61094 52 0 0 0 0
-1.844942 2.844319 1.612025 47.90909 0 0 0 0
-1.759117 2.873095 1.606249 51 0 0 0 0
-1.63625 2.846177 1.610939 27 0 0 0 0
2.797967 2.84862 1.631064 32 0 0 0 0
3.039405 2.857286 1.630431 25.5 0 0 0 0
3.107899 2.818677 1.631928 22 0 0 0 0
3.286782 2.867027 1.626493 21.5 0 0 0 0
3.3697 2.843055 1.635649 11 0 0 0 0
3.459199 2.816807 1.639704 9 0 0 0 0
3.540255 2.827868 1.635859 11 0 0 0 0
3.613854 2.829921 1.635806 11.5 0 0 0 0
3.737867 2.844744 1.629784 21.2 0 0 0 0
3.840935 2.823611 1.616734 35.66667 0 0 0 0
4.055726 2.831707 1.611656 39 0 0 0 0
4.165236 2.851859 1.616154 51 0 0 0 0
4.268048 2.850606 1.623551 45 0 0 0 0
4.351477 2.844465 1.622773 50.33333 0 0 0 0
4.469751 2.82984 1.625004 56.66667 0 0 0 0
4.56244 2.853136 1.623785 48.6 0 0 0 0
4.666385 2.869485 1.621119 47.66667 0 0 0 0
4.725681 2.836782 1.625357 50.66667 0 0 0 0
4.860318 2.857748 1.629733 56 0 0 0 0
4.959597 2.84987 1.630551 42.6 0 0 0 0
5.064058 2.837468 1.626793 46.25 0 0 0 0
5.132182 2.848883 1.625798 53.5 0 0 0 0
5.35807 2.864044 1.626751 46 0 0 0 0
5.464689 2.849622 1.630106 44.66667 0 0 0 0
5.619573 2.808756 1.615883 47 0 0 0 0
5.744187 2.819678 1.641156 35 0 0 0 0
-4.131608 2.950444 1.621619 33 0 0 0 0
-4.095412 2.920313 1.631777 53 0 0 0 0
-3.963454 2.948078 1.624877 38.5 0 0 0 0
-3.89257 2.962797 1.628451 32.5 0 0 0 0
-3.754119 2.927162 1.626008 39.5 0 0 0 0
-3.635698 2.962458 1.629356 25.66667 0 0 0 0
-3.571465 2.929922 1.635369 36 0 0 0 0
-3.446579 2.938316 1.633165 40 0 0 0 0
-3.342767 2.950307 1.630625 39.44444 0 0 0 0
-3.252619 2.970341 1.615434 36.5 0 0 0 0
-3.158687 2.945337 1.620243 66.44444 0 0 0 0
-3.048563 2.942034 1.618464 63.3 0 0 0 0
-2.943315 2.959441 1.614448 67.26316 0 0 0 0
-2.841668 2.934226 1.617753 58.71429 0 0 0 0
-2.754627 2.936031 1.614779 57.11111 0 0 0 0
-2.652579 2.943674 1.613768 49.75 0 0 0 0
-2.55341 2.945592 1.61177 56.75 0 0 0 0
-2.452909 2.950741 1.612052 61.61905 0 0 0 0
-2.355139 2.953748 1.611845 56.89474 0 0 0 0
-2.23838 2.956914 1.610281 54.55556 0 0 0 0
-2.144889 2.952426 1.609255 53.28571 0 0 0 0
-2.051189 2.952127 1.611004 43.33333 0 0 0 0
-1.96709 2.946274 1.609241 57.63636 0 0 0 0
-1.86069 2.96393 1.609819 44.55556 0 0 0 0
-1.734009 2.951679 1.606885 51.33333 0 0 0 0
-1.662149 2.950088 1.618098 21 0 0 0 0
-1.562709 2.920316 1.603986 36.66667 0 0 0 0
3.078064 2.981543 1.626931 22 0 0 0 0
3.534018 2.949768 1.623074 13.5 0 0 0 0
3.681574 2.920259 1.639917 12 0 0 0 0
3.717838 2.997805 1.641026 11 0 0 0 0
3.855934 2.975113 1.627709 13 0 0 0 0
3.968988 2.966089 1.635511 17 0 0 0 0
4.048448 2.950113 1.620908 35 0 0 0 0
4.341196 2.959041 1.620443 52.66667 0 0 0 0
4.445027 2.977684 1.614989 25 0 0 0 0
4.546225 2.925527 1.623198 47 0 0 0 0
4.653582 2.937541 1.624471 53.5 0 0 0 0
4.733229 2.923809 1.619818 37.5 0 0 0 0
4.87953 2.951292 1.628492 54 0 0 0 0
4.975096 2.979922 1.625675 53 0 0 0 0
5.072843 2.958431 1.630029 39.75 0 0 0 0
5.15382 2.97195 1.628179 40.66667 0 0 0 0
5.21634 2.950635 1.621521 50.5 0 0 0 0
5.396059 2.917578 1.632686 52 0 0 0 0
5.538852 2.995982 1.633819 44 0 0 0 0
5.664825 2.920013 1.616768 39 0 0 0 0
5.768824 2.921927 1.630795 45 0 0 0 0
5.809479 2.920331 1.617028 47 0 0 0 0
-3.841468 3.039834 1.626676 32.66667 0 0 0 0
-3.737557 3.075508 1.62955 26.2 0 0 0 0
-3.637504 3.089317 1.632216 26 0 0 0 0
-3.533058 3.069031 1.637264 28.75 0 0 0 0
-3.453158 3.047752 1.63389 33.66667 0 0 0 0
-3.347997 3.06257 1.633385 33.25 0 0 0 0
-3.239757 3.061515 1.620801 49.83333 0 0 0 0
-3.153391 3.056124 1.624354 61.14286 0 0 0 0
-3.049561 3.037522 1.61892 57.9 0 0 0 0
-2.942696 3.073891 1.618677 51.875 0 0 0 0
-2.855829 3.049275 1.615208 57.23077 0 0 0 0
-2.746078 3.045908 1.614486 58.76191 0 0 0 0
-2.642568 3.048662 1.616879 56.05882 0 0 0 0
-2.540618 3.051648 1.612637 50.66667 0 0 0 0
-2.458053 3.050007 1.613347 51.52381 0 0 0 0
-2.35779 3.040596 1.612637 48.57692 0 0 0 0
-2.257195 3.04566 1.614633 47 0 0 0 0
-2.140009 3.048167 1.611461 48.13636 0 0 0 0
-2.048963 3.056068 1.606702 43.71429 0 0 0 0
-1.956354 3.050075 1.61456 47.11111 0 0 0 0
-1.862321 3.047606 1.610263 39.7 0 0 0 0
-1.76022 3.059428 1.610396 26.4 0 0 0 0
-1.648591 3.045446 1.608561 29.85714 0 0 0 0
-1.572112 3.07107 1.607361 49 0 0 0 0
-1.383717 3.079532 1.609174 5 0 0 0 0
3.212815 3.019575 1.616718 23 0 0 0 0
3.4363 3.006687 1.628098 13 0 0 0 0
3.630152 3.006139 1.642546 16 0 0 0 0
3.709409 3.00948 1.626302 12 0 0 0 0
4.337741 3.05033 1.618614 39.5 0 0 0 0
4.472681 3.026273 1.621635 48 0 0 0 0
4.52347 3.049217 1.616363 40 0 0 0 0
4.653224 3.041639 1.628012 55.25 0 0 0 0
4.730496 3.054714 1.627947 53.5 0 0 0 0
4.803412 3.083136 1.627605 53 0 0 0 0
4.932841 3.02552 1.630339 51 0 0 0 0
5.013371 3.074037 1.61775 43 0 0 0 0
5.153376 3.023829 1.63305 31.66667 0 0 0 0
5.200516 3.054973 1.623504 42 0 0 0 0
5.31136 3.067718 1.622509 45.33333 0 0 0 0
5.529094 3.056845 1.626858 42.5 0 0 0 0
5.656297 3.065231 1.612645 44 0 0 0 0
6.03693 3.08957 1.603958 32 0 0 0 0
6.164403 3.0726 1.604746 39 0 0 0 0
6.214965 3.037064 1.629057 37 0 0 0 0
-4.97367 3.189003 1.643129 0 0 0 0 0
-4.561264 3.127338 1.642794 17.33333 0 0 0 0
-4.412689 3.154425 1.64937 27 0 0 0 0
-4.379321 3.142457 1.642616 27 0 0 0 0
-4.252095 3.151846 1.610188 38 0 0 0 0
-4.131859 3.141208 1.617458 39 0 0 0 0
-4.049276 3.176576 1.617776 47 0 0 0 0
-3.931422 3.110754 1.650601 3 0 0 0 0
-3.834002 3.143016 1.621736 35 0 0 0 0
-3.740493 3.148002 1.615024 41.5 0 0 0 0
-3.641054 3.157989 1.618459 41.5 0 0 0 0
-3.559996 3.16943 1.619373 43.5 0 0 0 0
-3.441286 3.130644 1.617844 41.33333 0 0 0 0
-3.344034 3.134466 1.619203 54.125 0 0 0 0
-3.258282 3.152982 1.619341 45.72727 0 0 0 0
-3.144924 3.142223 1.620444 60.45454 0 0 0 0
-3.052376 3.144333 1.618092 62.5625 0 0 0 0
-2.942589 3.155043 1.617182 61.35294 0 0 0 0
-2.842801 3.146642 1.619845 63.92308 0 0 0 0
-2.757714 3.141916 1.615101 59.27778 0 0 0 0
-2.636624 3.148447 1.616425 58 0 0 0 0
-2.542288 3.152265 1.620649 64.92857 0 0 0 0
-2.449465 3.146241 1.613937 54.26667 0 0 0 0
-2.357045 3.147245 1.615007 56.35294 0 0 0 0
-2.252419 3.147679 1.609758 55.27778 0 0 0 0
-2.140603 3.150648 1.611878 56.85714 0 0 0 0
-2.046019 3.150163 1.609089 44.36364 0 0 0 0
-1.955251 3.134899 1.60667 43.44444 0 0 0 0
-1.825022 3.160881 1.605168 38.5 0 0 0 0
-1.750057 3.151273 1.607665 44.33333 0 0 0 0
-1.660925 3.163383 1.607579 31.75 0 0 0 0
-1.536042 3.163848 1.604356 58 0 0 0 0
-1.445345 3.190947 1.604295 49 0 0 0 0
-1.352744 3.141988 1.605635 26 0 0 0 0
3.049608 3.168146 1.633159 19 0 0 0 0
3.372581 3.102503 1.627611 15 0 0 0 0
3.971895 3.167045 1.629251 14 0 0 0 0
4.046646 3.140312 1.627975 25.5 0 0 0 0
4.117485 3.140145 1.628585 29 0 0 0 0
4.257641 3.125837 1.618554 42 0 0 0 0
4.38299 3.176249 1.625729 37 0 0 0 0
4.432728 3.139568 1.628935 57 0 0 0 0
4.570354 3.167307 1.614766 37.5 0 0 0 0
4.659706 3.117392 1.617678 47 0 0 0 0
4.731716 3.178902 1.632518 49.5 0 0 0 0
4.859909 3.110115 1.621428 48.66667 0 0 0 0
4.940989 3.160573 1.628024 46.6 0 0 0 0
5.050534 3.14729 1.631155 50 0 0 0 0
5.159133 3.14943 1.633442 33 0 0 0 0
5.247475 3.166225 1.623522 49.5 0 0 0 0
5.364018 3.112312 1.620535 47 0 0 0 0
5.420215 3.167951 1.621608 43.5 0 0 0 0
5.562098 3.193008 1.630801 45 0 0 0 0
5.611663 3.154791 1.63335 42 0 0 0 0
5.755602 3.143534 1.62106 38 0 0 0 0
5.88305 3.156305 1.624147 48 0 0 0 0
5.935628 3.152794 1.622281 43.5 0 0 0 0
6.068984 3.150278 1.633085 41 0 0 0 0
-4.449162 3.207114 1.644503 36 0 0 0 0
-4.335197 3.296391 1.641335 40 0 0 0 0
-4.214011 3.284632 1.632736 39.33333 0 0 0 0
-4.170603 3.243217 1.643313 41 0 0 0 0
-4.0067 3.25327 1.60911 42 0 0 0 0
-3.943158 3.212655 1.612838 37 0 0 0 0
-3.838718 3.272604 1.610366 39 0 0 0 0
-3.745954 3.257104 1.608665 42 0 0 0 0
-3.64727 3.234787 1.613432 47.2 0 0 0 0
-3.54919 3.27293 1.610609 47.25 0 0 0 0
-3.447995 3.242124 1.601959 56 0 0 0 0
-3.343714 3.249439 1.614827 50 0 0 0 0
-3.246204 3.256493 1.614464 52.2 0 0 0 0
-3.160653 3.254177 1.619654 45.5 0 0 0 0
-3.044206 3.235472 1.629576 59.5 0 0 0 0
-2.972721 3.227083 1.625845 61 0 0 0 0
-2.850643 3.24921 1.621128 63.5 0 0 0 0
-2.737825 3.226669 1.61935 55.125 0 0 0 0
-2.665396 3.249459 1.616095 58.5 0 0 0 0
-2.554846 3.248801 1.612229 57.42857 0 0 0 0
-2.450054 3.235384 1.611564 67.28571 0 0 0 0
-2.338778 3.25748 1.61379 56.09091 0 0 0 0
-2.216901 3.24592 1.608865 56.75 0 0 0 0
-2.16434 3.258828 1.608882 57.66667 0 0 0 0
-2.054456 3.255178 1.608735 37.16667 0 0 0 0
-1.946637 3.241723 1.608803 51.16667 0 0 0 0
-1.871146 3.264901 1.609291 43.46154 0 0 0 0
-1.76511 3.254574 1.608366 49.66667 0 0 0 0
-1.662847 3.265976 1.606419 46.28571 0 0 0 0
-1.502276 3.233391 1.606161 44 0 0 0 0
-1.493782 3.232971 1.610715 33 0 0 0 0
-1.339053 3.290566 1.607197 43 0 0 0 0
-1.273976 3.292486 1.609219 42 0 0 0 0
2.773638 3.253376 1.629347 18 0 0 0 0
3.370799 3.225982 1.632612 18 0 0 0 0
3.691103 3.233106 1.63289 15 0 0 0 0
3.842429 3.255814 1.632417 13 0 0 0 0
3.962249 3.23235 1.625502 24 0 0 0 0
4.299667 3.23734 1.619582 37 0 0 0 0
4.435438 3.226572 1.622578 42.75 0 0 0 0
4.566882 3.241773 1.630684 42 0 0 0 0
4.677341 3.297671 1.620104 43 0 0 0 0
4.74149 3.270483 1.630406 45.5 0 0 0 0
4.833908 3.256943 1.632656 53 0 0 0 0
4.957813 3.257019 1.627856 48.33333 0 0 0 0
5.020302 3.265683 1.611697 44.5 0 0 0 0
5.115376 3.26515 1.630159 43 0 0 0 0
5.298538 3.260242 1.628794 41 0 0 0 0
5.356473 3.21726 1.633327 48 0 0 0 0
5.550912 3.253606 1.620543 45 0 0 0 0
5.677165 3.218815 1.624166 46 0 0 0 0
-3.962453 3.324889 1.621598 50 0 0 0 0
-3.894042 3.300902 1.629228 44 0 0 0 0
-3.658381 3.341855 1.611448 42 0 0 0 0
-3.575486 3.324372 1.607548 44.5 0 0 0 0
-3.439443 3.365763 1.608004 47.66667 0 0 0 0
-3.37382 3.37695 1.610643 47 0 0 0 0
-3.226832 3.354407 1.607334 49.5 0 0 0 0
-3.147189 3.336668 1.612721 61.33333 0 0 0 0
-3.05598 3.352424 1.611695 51 0 0 0 0
-2.93228 3.328843 1.612025 66 0 0 0 0
-2.870566 3.36902 1.614422 60.25 0 0 0 0
-2.736469 3.35437 1.61412 60.57143 0 0 0 0
-2.634469 3.353323 1.623765 61.75 0 0 0 0
-2.529211 3.353879 1.617811 62.25 0 0 0 0
-2.457843 3.324347 1.62168 65.5 0 0 0 0
-2.334696 3.343971 1.608107 58.5 0 0 0 0
-2.254072 3.348679 1.607204 61.25 0 0 0 0
-2.141168 3.370409 1.611069 57.33333 0 0 0 0
-2.02791 3.353866 1.605194 45.5 0 0 0 0
-1.969809 3.348011 1.608227 53 0 0 0 0
-1.839821 3.333052 1.600311 38 0 0 0 0
-1.671556 3.36772 1.606653 52.25 0 0 0 0
-1.519354 3.362068 1.611457 35.25 0 0 0 0
-1.329639 3.343726 1.609792 41.5 0 0 0 0
-1.270961 3.365795 1.610296 42.5 0 0 0 0
3.13417 3.348273 1.640258 19 0 0 0 0
3.501532 3.343159 1.642034 21 0 0 0 0
3.654563 3.317349 1.653201 18 0 0 0 0
3.843699 3.370511 1.644178 21 0 0 0 0
3.920012 3.354257 1.631676 14 0 0 0 0
4.167304 3.353994 1.627182 37 0 0 0 0
4.240379 3.380196 1.625353 40.5 0 0 0 0
4.336864 3.331314 1.621281 39 0 0 0 0
4.551299 3.351913 1.62814 41.25 0 0 0 0
4.665407 3.309648 1.621346 44 0 0 0 0
4.762808 3.398013 1.63167 50 0 0 0 0
4.800292 3.312997 1.631586 47 0 0 0 0
4.926666 3.317927 1.633703 44 0 0 0 0
5.039122 3.343918 1.628554 43.5 0 0 0 0
5.150278 3.347403 1.625268 40.5 0 0 0 0
5.283686 3.356444 1.630577 6 0 0 0 0
5.329961 3.373137 1.625764 44 0 0 0 0
5.551721 3.369754 1.62172 47 0 0 0 0
5.867124 3.363198 1.625405 47 0 0 0 0
5.932167 3.325621 1.622079 43.66667 0 0 0 0
6.077458 3.396105 1.610933 51 0 0 0 0
-3.720751 3.41686 1.621911 4 0 0 0 0
-3.405585 3.424593 1.611017 47 0 0 0 0
-3.222335 3.461384 1.609564 28 0 0 0 0
-3.006126 3.424886 1.612162 57 0 0 0 0
-2.823085 3.439347 1.616305 57 0 0 0 0
-2.773617 3.403838 1.629398 63 0 0 0 0
-2.658942 3.451079 1.618758 45.33333 0 0 0 0
-2.475318 3.457841 1.61711 37.8 0 0 0 0
-2.336252 3.430838 1.616446 44 0 0 0 0
-2.2458 3.444126 1.610024 56.75 0 0 0 0
-2.155989 3.472871 1.611119 46.16667 0 0 0 0
-2.04395 3.439819 1.608468 37.33333 0 0 0 0
-1.961779 3.428998 1.609235 43.25 0 0 0 0
-1.871488 3.46054 1.610426 47.33333 0 0 0 0
-1.719231 3.4266 1.610585 24 0 0 0 0
-1.670157 3.453255 1.603363 40 0 0 0 0
-1.56835 3.486661 1.614733 18.5 0 0 0 0
-1.463326 3.449904 1.608387 38.33333 0 0 0 0
-1.372951 3.452598 1.613432 22.25 0 0 0 0
-1.241447 3.422226 1.605637 44 0 0 0 0
3.450414 3.49518 1.637887 28 0 0 0 0
3.582894 3.487577 1.63572 20 0 0 0 0
3.886673 3.406735 1.611471 15 0 0 0 0
3.901285 3.489397 1.637752 19 0 0 0 0
4.011114 3.450015 1.648803 17 0 0 0 0
4.261516 3.462361 1.626616 45 0 0 0 0
4.361153 3.431362 1.617346 46.5 0 0 0 0
4.534399 3.421115 1.618121 18 0 0 0 0
4.679832 3.430739 1.632066 47.5 0 0 0 0
4.764486 3.434533 1.621674 49.66667 0 0 0 0
4.820683 3.486446 1.607366 46 0 0 0 0
5.024709 3.487118 1.625859 47.5 0 0 0 0
5.19566 3.441993 1.618932 47 0 0 0 0
5.234776 3.432816 1.625117 47.5 0 0 0 0
5.307212 3.477027 1.620562 48.5 0 0 0 0
5.446119 3.416205 1.632733 19.66667 0 0 0 0
5.578471 3.46773 1.616311 38 0 0 0 0
5.651978 3.441593 1.620211 47 0 0 0 0
6.333656 3.497151 1.613127 6 0 0 0 0
6.427999 3.410115 1.629932 58 0 0 0 0
-3.093084 3.523016 1.602799 48 0 0 0 0
-2.766385 3.515411 1.606909 50 0 0 0 0
-2.678251 3.526785 1.606433 44 0 0 0 0
-2.599472 3.536396 1.617202 52 0 0 0 0
-2.373063 3.550142 1.620607 59.33333 0 0 0 0
-2.220802 3.535592 1.606378 57 0 0 0 0
-2.106002 3.518746 1.602508 57 0 0 0 0
-2.059319 3.565599 1.61087 36.66667 0 0 0 0
-1.930164 3.528143 1.605734 26.5 0 0 0 0
-1.866352 3.544857 1.605745 52.5 0 0 0 0
-1.750594 3.535814 1.609083 46.33333 0 0 0 0
-1.627501 3.551107 1.606741 39 0 0 0 0
-1.567809 3.555254 1.608444 34.5 0 0 0 0
-1.460289 3.507697 1.601083 34 0 0 0 0
-1.373009 3.535923 1.607458 43 0 0 0 0
-1.171893 3.571405 1.611912 37 0 0 0 0
3.042913 3.568803 1.646448 45 0 0 0 0
3.406973 3.594087 1.645343 69 0 0 0 0
3.769677 3.576363 1.64056 70 0 0 0 0
3.826183 3.578474 1.634192 57 0 0 0 0
3.909732 3.574866 1.627562 30 0 0 0 0
4.183243 3.502558 1.632476 47 0 0 0 0
4.488783 3.562408 1.605975 112 0 0 0 0
4.537006 3.540539 1.622137 87 0 0 0 0
4.7422 3.573945 1.626477 48 0 0 0 0
4.846375 3.593035 1.623906 47 0 0 0 0
4.920174 3.548489 1.61841 42 0 0 0 0
5.018301 3.583155 1.624292 47.33333 0 0 0 0
5.165692 3.538806 1.626034 46 0 0 0 0
5.248385 3.574267 1.63031 49 0 0 0 0
5.312497 3.522598 1.613752 44 0 0 0 0
5.435451 3.540426 1.622259 19.66667 0 0 0 0
5.564616 3.536033 1.618677 48 0 0 0 0
5.766197 3.577121 1.626564 50 0 0 0 0
5.831446 3.557751 1.611458 49 0 0 0 0
6.035992 3.569017 1.614819 47.33333 0 0 0 0
-2.40992 3.617235 1.61165 37.5 0 0 0 0
-2.244548 3.646079 1.616375 46.5 0 0 0 0
-2.163069 3.637949 1.615534 52 0 0 0 0
-2.042061 3.680181 1.605241 36 0 0 0 0
-1.998627 3.645605 1.614431 46 0 0 0 0
-1.816047 3.660934 1.612954 33.33333 0 0 0 0
-1.73375 3.656092 1.609928 49.33333 0 0 0 0
-1.616575 3.660015 1.608405 34.5 0 0 0 0
-1.511512 3.687312 1.60333 51 0 0 0 0
-1.418975 3.649334 1.609698 12.5 0 0 0 0
-1.35584 3.653198 1.613193 25.5 0 0 0 0
-1.228218 3.698761 1.604301 56 0 0 0 0
3.071943 3.635989 1.601154 139 0 0 0 0
3.826769 3.609147 1.613 59 0 0 0 0
4.934134 3.643442 1.626733 51.33333 0 0 0 0
5.007792 3.659316 1.616324 46 0 0 0 0
5.162254 3.604791 1.626246 46 0 0 0 0
5.487447 3.666338 1.609958 47 0 0 0 0
5.540017 3.646381 1.617584 35.5 0 0 0 0
5.626338 3.634843 1.622379 26 0 0 0 0
5.858099 3.63884 1.611877 49 0 0 0 0
5.906151 3.636788 1.608518 38 0 0 0 0
6.035389 3.63675 1.622301 44.33333 0 0 0 0
-2.364351 3.7403 1.612629 59 0 0 0 0
-2.277466 3.742647 1.629973 28 0 0 0 0
-1.948217 3.754236 1.615465 65 0 0 0 0
-1.76476 3.760699 1.610102 50.25 0 0 0 0
-1.632108 3.788367 1.632581 2 0 0 0 0
-1.558957 3.732342 1.611509 44.6 0 0 0 0
-1.462773 3.769522 1.611174 55.25 0 0 0 0
-1.302773 3.739526 1.614341 9 0 0 0 0
-1.287029 3.768969 1.60777 82 0 0 0 0
-1.195463 3.766984 1.612945 30 0 0 0 0
-1.077749 3.750111 1.602455 54.5 0 0 0 0
-0.9561095 3.742502 1.6084 62 0 0 0 0
-0.8773542 3.70023 1.609918 6 0 0 0 0
-0.791541 3.728429 1.600298 5 0 0 0 0
4.851068 3.721674 1.620663 45 0 0 0 0
4.946787 3.743892 1.621115 47.5 0 0 0 0
5.018154 3.750357 1.630107 50 0 0 0 0
5.141608 3.753762 1.614082 43.33333 0 0 0 0
5.243202 3.727871 1.627695 46.5 0 0 0 0
5.347209 3.777814 1.623871 47.5 0 0 0 0
5.483667 3.736472 1.610174 42 0 0 0 0
5.564979 3.747443 1.621864 26 0 0 0 0
5.735555 3.734831 1.618616 45 0 0 0 0
5.886892 3.746175 1.61529 48 0 0 0 0
-2.338128 3.852142 1.61793 14 0 0 0 0
-2.219301 3.843739 1.60813 84 0 0 0 0
-2.17953 3.848572 1.61456 18 0 0 0 0
-2.05993 3.826963 1.612373 56.66667 0 0 0 0
-1.839619 3.818135 1.616319 53 0 0 0 0
-1.794386 3.837973 1.60114 111 0 0 0 0
-1.663246 3.827782 1.611336 79 0 0 0 0
-1.424944 3.809452 1.607928 80.5 0 0 0 0
4.907373 3.802991 1.626504 48 0 0 0 0
5.000928 3.887107 1.624683 48 0 0 0 0
5.147527 3.887433 1.605204 35 0 0 0 0
5.245019 3.843287 1.620276 49.5 0 0 0 0
5.303257 3.853158 1.618575 47 0 0 0 0
5.442133 3.826748 1.622442 49 0 0 0 0
5.668584 3.84224 1.621222 44.66667 0 0 0 0
6.052481 3.897042 1.616445 41 0 0 0 0
5.056036 3.932659 1.626059 47.5 0 0 0 0
5.141235 3.976532 1.627424 47 0 0 0 0
5.274084 3.962063 1.621328 46 0 0 0 0
5.338141 3.983652 1.621037 43.33333 0 0 0 0
5.412414 3.946553 1.610566 50 0 0 0 0
5.553464 3.928461 1.619048 42 0 0 0 0
5.749148 3.963204 1.606826 21.5 0 0 0 0
5.975581 3.936601 1.609257 37 0 0 0 0
6.012703 3.999529 1.621618 36 0 0 0 0
5.05371 4.063776 1.61861 46 0 0 0 0
5.460999 4.034754 1.626356 49 0 0 0 0
5.62848 4.07616 1.612974 43 0 0 0 0
5.731191 4.066335 1.614278 44.33333 0 0 0 0
5.832043 4.055155 1.614556 18 0 0 0 0
5.944726 4.048955 1.618226 34.25 0 0 0 0
6.045658 4.035367 1.618373 40.66667 0 0 0 0
6.139741 4.001194 1.634898 49 0 0 0 0
4.926094 4.117127 1.615851 45 0 0 0 0
5.041766 4.11114 1.630367 48 0 0 0 0
5.261993 4.115866 1.620624 46 0 0 0 0
5.392624 4.192043 1.619781 53 0 0 0 0
5.442401 4.166652 1.61363 41 0 0 0 0
5.539252 4.131031 1.61611 47 0 0 0 0
5.658477 4.151697 1.617568 37.5 0 0 0 0
5.730287 4.146809 1.618343 44.5 0 0 0 0
6.093817 4.167294 1.613297 57 0 0 0 0
6.138668 4.111218 1.618115 55 0 0 0 0
5.043205 4.287903 1.612227 56 0 0 0 0
5.15192 4.265514 1.61954 46 0 0 0 0
5.240471 4.271358 1.622625 42.5 0 0 0 0
5.549519 4.235769 1.609982 44 0 0 0 0
5.646011 4.259694 1.618156 44 0 0 0 0
5.805688 4.259585 1.619195 47 0 0 0 0
6.010445 4.232243 1.608666 38 0 0 0 0
6.108145 4.28724 1.619565 45 0 0 0 0
5.230102 4.337971 1.623173 51.5 0 0 0 0
5.349128 4.32761 1.625526 53 0 0 0 0
5.557868 4.324954 1.615119 15 0 0 0 0
5.663267 4.372451 1.617244 80 0 0 0 0
5.866135 4.378882 1.62032 71 0 0 0 0
6.036378 4.372034 1.619123 47.75 0 0 0 0
6.183919 4.37091 1.611787 84 0 0 0 0
6.261082 4.329589 1.60164 117 0 0 0 0
5.348961 4.421578 1.618221 47.5 0 0 0 0
5.683274 4.430265 1.602382 137 0 0 0 0
5.950008 4.413772 1.608165 122 0 0 0 0
6.028929 4.402729 1.612424 105 0 0 0 0
6.134333 4.405939 1.607972 107 0 0 0 0
-0.8047469 -16.62357 1.712307 1 0 0 0 0
-0.5344611 -16.60089 1.704914 1 0 0 0 0
-0.08353698 -16.62446 1.717488 2 0 0 0 0
-2.445692 -16.50174 1.701353 0 0 0 0 0
-1.92093 -16.55992 1.714125 3 0 0 0 0
-0.8281433 -16.58385 1.719761 2 0 0 0 0
-0.5709407 -16.53185 1.70194 1 0 0 0 0
1.362621 -16.5372 1.78454 2 0 0 0 0
1.479509 -16.52538 1.701606 2 0 0 0 0
1.565623 -16.50656 1.792773 3 0 0 0 0
1.724167 -16.53793 1.706088 1 0 0 0 0
1.921587 -16.50302 1.788879 2 0 0 0 0
2.001119 -16.53224 1.705659 1 0 0 0 0
-4.253999 -16.4412 1.722949 1 0 0 0 0
-4.182812 -16.43405 1.71251 2 0 0 0 0
-3.424169 -16.44186 1.745909 2 0 0 0 0
-0.5789151 -16.47902 1.726678 1 0 0 0 0
1.289324 -16.49476 1.701588 1 0 0 0 0
-4.480871 -16.35095 1.712477 2 0 0 0 0
-4.340727 -16.32918 1.764828 2 0 0 0 0
-4.256433 -16.34547 1.738689 2 0 0 0 0
-4.117623 -16.38148 1.778781 2 0 0 0 0
-4.064007 -16.39927 1.758086 2 0 0 0 0
-3.854683 -16.37078 1.737566 1.666667 0 0 0 0
-3.752029 -16.36629 1.790944 1.5 0 0 0 0
2.080667 -15.85169 1.734788 2 0 0 0 0
2.411865 -15.8252 1.781427 2 0 0 0 0
2.542146 -15.81275 1.77753 2 0 0 0 0
2.68286 -15.8137 1.729567 1.5 0 0 0 0
2.755569 -15.80375 1.712184 1 0 0 0 0
2.859572 -15.81176 1.710955 1.5 0 0 0 0
2.934196 -15.84628 1.758039 1.666667 0 0 0 0
3.075128 -15.83034 1.734699 2 0 0 0 0
3.170977 -15.85517 1.708942 1 0 0 0 0
3.227123 -15.82573 1.755879 3 0 0 0 0
2.101665 -15.73385 1.765209 2 0 0 0 0
2.261697 -15.78763 1.760281 2 0 0 0 0
2.446644 -15.73928 1.716566 3 0 0 0 0
2.510391 -15.77717 1.731743 2 0 0 0 0
2.769991 -15.7741 1.767481 2 0 0 0 0
2.982963 -15.75307 1.770465 1 0 0 0 0
3.054799 -15.77551 1.755102 2 0 0 0 0
3.14851 -15.78252 1.721504 1 0 0 0 0
2.33442 -15.6397 1.741418 2.5 0 0 0 0
2.966681 -15.64758 1.727027 2 0 0 0 0
3.132181 -15.69174 1.70556 2 0 0 0 0
3.546064 -15.63546 1.798336 2 0 0 0 0
3.298682 -14.15654 1.753877 1 0 0 0 0
3.351386 -14.12696 1.731239 1 0 0 0 0
3.477406 -14.16099 1.740193 1.666667 0 0 0 0
3.583934 -14.1525 1.76972 1 0 0 0 0
3.620681 -14.19819 1.770491 1 0 0 0 0
3.708224 -14.12244 1.701143 1 0 0 0 0
3.322113 -14.06289 1.764525 1 0 0 0 0
3.450526 -14.0753 1.736127 1 0 0 0 0
3.54645 -14.06299 1.719817 2 0 0 0 0
3.688504 -14.01023 1.718211 1 0 0 0 0
3.288138 -13.96278 1.749595 1 0 0 0 0
3.52198 -13.9125 1.72548 2 0 0 0 0
3.619761 -13.96996 1.72115 1 0 0 0 0
3.815925 -13.95829 1.756294 1 0 0 0 0
-4.459352 -13.83903 1.741541 1.5 0 0 0 0
-4.273612 -13.81743 1.750915 1.5 0 0 0 0
-3.576503 -13.85085 1.717448 1 0 0 0 0
-4.675715 -13.74905 1.704792 1 0 0 0 0
-4.567048 -13.73609 1.726805 1.5 0 0 0 0
-4.450501 -13.78846 1.738381 0.5 0 0 0 0
-4.347383 -13.7663 1.733503 1.25 0 0 0 0
-4.280472 -13.78706 1.77662 1 0 0 0 0
3.683003 -13.68757 1.718671 1 0 0 0 0
3.698311 -13.39681 1.722544 1 0 0 0 0
3.708249 -13.2522 1.73466 1 0 0 0 0
3.7637 -13.07336 1.763584 1 0 0 0 0
-4.752078 -12.75379 1.713465 1 0 0 0 0
3.813939 -12.7406 1.71571 1 0 0 0 0
3.993252 -12.74299 1.700175 1 0 0 0 0
3.804736 -12.67404 1.722468 1 0 0 0 0
-4.030208 -12.35073 1.735497 0 0 0 0 0
3.841177 -12.30813 1.723511 1 0 0 0 0
3.801659 -12.24008 1.713242 1 0 0 0 0
-2.537346 -12.05481 1.724924 0 0 0 0 0
3.82393 -12.07421 1.736535 0.5 0 0 0 0
-4.664599 -11.93831 1.722747 1 0 0 0 0
-1.974887 -11.80012 1.700792 1 0 0 0 0
-4.672952 -11.4135 1.722858 1 0 0 0 0
-4.156687 -11.45088 1.725936 0 0 0 0 0
-4.614991 -11.32998 1.712082 1 0 0 0 0
-3.969695 -11.30509 1.704726 0 0 0 0 0
-4.564898 -11.23872 1.725837 0 0 0 0 0
-4.064892 -11.2016 1.72779 1 0 0 0 0
-4.671485 -11.00763 1.705205 1 0 0 0 0
-4.173704 -11.09655 1.711424 1 0 0 0 0
3.055739 -10.95218 1.720587 0.5 0 0 0 0
-4.13797 -10.88428 1.746381 1 0 0 0 0
3.065475 -10.86132 1.718091 0.5 0 0 0 0
-4.58923 -10.74992 1.701858 2 0 0 0 0
-4.149995 -10.74635 1.72155 1 0 0 0 0
3.119493 -10.77926 1.733925 0 0 0 0 0
-4.608929 -10.63973 1.707271 1 0 0 0 0
-4.203217 -10.63179 1.707249 1 0 0 0 0
3.052379 -10.5422 1.742687 0 0 0 0 0
-4.111346 -10.45633 1.726484 0 0 0 0 0
-4.203136 -10.32971 1.772124 1 0 0 0 0
2.741416 -10.33464 1.708411 0 0 0 0 0
2.860255 -10.30512 1.717902 0 0 0 0 0
3.066658 -10.38556 1.716389 0 0 0 0 0
-4.114299 -10.2271 1.723703 0 0 0 0 0
0.3335426 -10.21346 1.730517 0 0 0 0 0
-4.57909 -10.1078 1.70382 0 0 0 0 0
0.1681764 -10.11019 1.728423 0 0 0 0 0
2.100953 -10.1268 1.709019 0 0 0 0 0
3.0543 -10.16999 1.760912 0.6666667 0 0 0 0
3.112608 -10.13492 1.704947 1 0 0 0 0
-4.547443 -10.09147 1.707715 0 0 0 0 0
-4.178303 -10.03194 1.704742 0 0 0 0 0
2.185272 -10.02979 1.711182 0 0 0 0 0
2.227489 -10.0614 1.731025 0 0 0 0 0
-4.536888 -9.961617 1.706568 0 0 0 0 0
-4.229415 -9.981943 1.742106 0 0 0 0 0
-4.198871 -9.953922 1.720663 0 0 0 0 0
-0.2148046 -9.981226 1.723652 0 0 0 0 0
0.5131128 -9.93184 1.708684 0 0 0 0 0
3.111319 -9.921045 1.721339 0.3333333 0 0 0 0
-4.513135 -9.85878 1.708686 0 0 0 0 0
-4.473974 -9.862442 1.721642 0 0 0 0 0
-4.154927 -9.850268 1.716741 0 0 0 0 0
-0.636439 -9.844497 1.733423 0 0 0 0 0
0.02467368 -9.866438 1.728269 0 0 0 0 0
0.1270494 -9.889156 1.733142 0 0 0 0 0
0.3459478 -9.881476 1.715067 0 0 0 0 0
1.99946 -9.810223 1.739647 0 0 0 0 0
3.083841 -9.844436 1.751893 1 0 0 0 0
3.161784 -9.85855 1.701232 1 0 0 0 0
-4.505608 -9.789569 1.713609 0 0 0 0 0
-4.495566 -9.768667 1.724655 0 0 0 0 0
-3.899208 -9.700452 1.713909 0 0 0 0 0
-3.603997 -9.718201 1.71494 0 0 0 0 0
-3.589455 -9.741207 1.720484 0 0 0 0 0
-0.5696824 -9.706938 1.724858 0 0 0 0 0
-0.3324495 -9.700422 1.742228 0 0 0 0 0
-0.1801118 -9.713442 1.728404 0 0 0 0 0
-0.04927027 -9.733287 1.731366 0 0 0 0 0
0.004558388 -9.729497 1.744756 0 0 0 0 0
0.1205366 -9.736021 1.73305 0 0 0 0 0
0.2548459 -9.713208 1.726574 0 0 0 0 0
0.3262828 -9.702533 1.72437 0 0 0 0 0
0.4568835 -9.747491 1.740079 0 0 0 0 0
0.7830011 -9.75985 1.710781 0 0 0 0 0
1.799096 -9.798866 1.733424 0 0 0 0 0
1.832713 -9.719786 1.706113 0 0 0 0 0
3.115062 -9.763466 1.738674 1 0 0 0 0
-4.310518 -9.601946 1.714505 0 0 0 0 0
-4.137659 -9.681746 1.714225 0 0 0 0 0
-3.608729 -9.638718 1.728501 0 0 0 0 0
-3.199497 -9.689351 1.708032 0 0 0 0 0
-3.077993 -9.612128 1.713975 0 0 0 0 0
-2.877359 -9.605753 1.706834 0 0 0 0 0
-2.377381 -9.673165 1.710531 0 0 0 0 0
-1.154859 -9.644366 1.719961 0 0 0 0 0
-0.8281109 -9.645708 1.707937 0 0 0 0 0
-0.7705372 -9.605017 1.724597 0 0 0 0 0
-0.6397784 -9.665553 1.733482 0 0 0 0 0
-0.4614512 -9.67371 1.724609 0 0 0 0 0
-0.286964 -9.652331 1.728694 0 0 0 0 0
-0.1305569 -9.661346 1.721844 0 0 0 0 0
0.2146488 -9.683653 1.718762 0 0 0 0 0
0.4631692 -9.645312 1.723208 0 0 0 0 0
0.5360538 -9.653238 1.71868 0 0 0 0 0
0.6632117 -9.636318 1.745654 0 0 0 0 0
1.728711 -9.604336 1.719742 0 0 0 0 0
3.181396 -9.657357 1.741827 1 0 0 0 0
-4.539723 -9.580199 1.709259 1 0 0 0 0
-4.4133 -9.540256 1.710046 0 0 0 0 0
-4.201188 -9.570147 1.71699 0 0 0 0 0
-3.9073 -9.538393 1.733758 0 0 0 0 0
-3.747585 -9.570892 1.715076 0 0 0 0 0
-3.668446 -9.528812 1.715447 0 0 0 0 0
-3.568147 -9.540456 1.72114 0 0 0 0 0
-3.470499 -9.563722 1.715845 0 0 0 0 0
-3.341762 -9.568973 1.71683 0 0 0 0 0
-3.279387 -9.578968 1.714012 0 0 0 0 0
-3.132744 -9.536088 1.712293 0 0 0 0 0
-2.536479 -9.589211 1.711008 0 0 0 0 0
-1.082241 -9.53001 1.714798 0 0 0 0 0
-0.9015109 -9.523544 1.710103 0 0 0 0 0
-0.7643777 -9.525007 1.715736 0 0 0 0 0
-0.5546108 -9.503704 1.713393 0 0 0 0 0
-0.44835 -9.505484 1.733633 0 0 0 0 0
-0.3816807 -9.555813 1.72898 0 0 0 0 0
-0.2699152 -9.546671 1.733811 0 0 0 0 0
-0.1419653 -9.518393 1.72707 0 0 0 0 0
-0.05654388 -9.549008 1.732694 0 0 0 0 0
0.002134838 -9.531062 1.731822 0 0 0 0 0
0.126423 -9.537401 1.733769 0 0 0 0 0
0.344956 -9.516093 1.726821 0 0 0 0 0
0.4540559 -9.511492 1.725379 0 0 0 0 0
0.5740982 -9.541409 1.732347 0 0 0 0 0
0.619288 -9.550524 1.726812 0 0 0 0 0
1.899172 -9.53545 1.712977 1 0 0 0 0
3.121477 -9.598953 1.716832 0 0 0 0 0
-4.511148 -9.474697 1.704553 0.3333333 0 0 0 0
-4.489115 -9.407643 1.703689 0 0 0 0 0
-4.183006 -9.434981 1.720582 1 0 0 0 0
-4.034616 -9.479576 1.715833 0 0 0 0 0
-3.81794 -9.438204 1.716261 0 0 0 0 0
-3.75946 -9.44292 1.722957 0 0 0 0 0
-3.672862 -9.445584 1.711596 0 0 0 0 0
-3.394469 -9.425966 1.708436 0 0 0 0 0
-3.009947 -9.483727 1.706432 0 0 0 0 0
-2.974518 -9.4352 1.704895 0 0 0 0 0
-2.839128 -9.463812 1.713991 0 0 0 0 0
-1.44661 -9.44346 1.730872 0 0 0 0 0
-1.042229 -9.451364 1.720365 0 0 0 0 0
-0.9115657 -9.40826 1.745997 0 0 0 0 0
-0.8416247 -9.455907 1.716708 0 0 0 0 0
-0.7449448 -9.407457 1.738456 0 0 0 0 0
-0.6939452 -9.441129 1.738444 0 0 0 0 0
-0.5369199 -9.465396 1.725653 0 0 0 0 0
-0.4598744 -9.448426 1.742417 0 0 0 0 0
-0.3452331 -9.446169 1.718149 0 0 0 0 0
-0.2288348 -9.480373 1.711725 0 0 0 0 0
-0.1522366 -9.458572 1.726399 0 0 0 0 0
0.05264999 -9.424614 1.726267 0 0 0 0 0
0.1338773 -9.483426 1.740906 0 0 0 0 0
0.3130903 -9.419324 1.740959 0 0 0 0 0
0.5446907 -9.459065 1.716455 0 0 0 0 0
0.6718153 -9.452413 1.718893 0 0 0 0 0
-4.477788 -9.388633 1.713277 0 0 0 0 0
-4.3266 -9.308167 1.723992 0 0 0 0 0
-4.159534 -9.372893 1.708701 0 0 0 0 0
-3.96866 -9.396565 1.702138 0 0 0 0 0
-3.870035 -9.349387 1.719106 0 0 0 0 0
-3.690452 -9.347776 1.713486 0 0 0 0 0
-3.53878 -9.337835 1.717626 0 0 0 0 0
-3.435417 -9.317851 1.714403 0 0 0 0 0
-3.32641 -9.388863 1.714655 0 0 0 0 0
-3.264299 -9.339993 1.724107 0 0 0 0 0
-3.148973 -9.368406 1.712906 0 0 0 0 0
-3.041484 -9.304554 1.706893 0 0 0 0 0
-2.949238 -9.355042 1.71257 0 0 0 0 0
-2.864208 -9.33793 1.723566 0 0 0 0 0
-2.756242 -9.362431 1.722601 0 0 0 0 0
-2.527439 -9.309397 1.7215 0 0 0 0 0
-1.929852 -9.305488 1.740441 0 0 0 0 0
-1.745495 -9.358257 1.720364 0 0 0 0 0
-1.502513 -9.319873 1.730908 0 0 0 0 0
-1.46412 -9.303318 1.723458 0 0 0 0 0
-1.311852 -9.34628 1.722836 0 0 0 0 0
-1.220158 -9.331112 1.730531 0 0 0 0 0
-1.163961 -9.336381 1.73803 0 0 0 0 0
-1.015417 -9.319475 1.736443 0 0 0 0 0
-0.9800069 -9.348917 1.720398 0 0 0 0 0
-0.8770803 -9.345403 1.728222 0 0 0 0 0
-0.7627254 -9.364739 1.730503 0 0 0 0 0
-0.6389498 -9.320624 1.728408 0 0 0 0 0
-0.5387018 -9.366078 1.71683 0 0 0 0 0
-0.3794477 -9.345297 1.723851 0 0 0 0 0
-0.2446082 -9.348131 1.728442 0 0 0 0 0
-0.1518268 -9.337872 1.722833 0 0 0 0 0
-0.05082471 -9.336967 1.729889 0 0 0 0 0
0.04334073 -9.355958 1.728761 0 0 0 0 0
0.1761885 -9.342207 1.722997 0 0 0 0 0
0.2168743 -9.37027 1.725418 0 0 0 0 0
0.3291863 -9.393768 1.719435 0 0 0 0 0
0.5628126 -9.31999 1.708271 0 0 0 0 0
0.7750195 -9.338326 1.739144 0 0 0 0 0
0.8480285 -9.34424 1.722173 0 0 0 0 0
0.9076653 -9.300396 1.719776 0 0 0 0 0
1.286885 -9.343193 1.710614 0 0 0 0 0
2.284513 -9.357757 1.712799 0 0 0 0 0
3.122741 -9.364965 1.718864 0.25 0 0 0 0
-4.45709 -9.270724 1.706851 0 0 0 0 0
-4.243093 -9.272424 1.721691 0 0 0 0 0
-4.157897 -9.26294 1.705155 0 0 0 0 0
-4.020886 -9.231127 1.704447 0 0 0 0 0
-3.656046 -9.271422 1.714274 0 0 0 0 0
-3.522356 -9.261824 1.708865 0 0 0 0 0
-3.430145 -9.277526 1.712405 0 0 0 0 0
-3.337805 -9.241586 1.709354 0 0 0 0 0
-3.256063 -9.268878 1.711367 0 0 0 0 0
-3.156702 -9.240206 1.7131 0 0 0 0 0
-3.046197 -9.247791 1.721688 0 0 0 0 0
-2.972703 -9.233396 1.706892 0 0 0 0 0
-2.833609 -9.235765 1.715218 0 0 0 0 0
-2.6359 -9.21108 1.704171 0 0 0 0 0
-2.552874 -9.222342 1.720564 0 0 0 0 0
-2.058544 -9.233568 1.714273 0 0 0 0 0
-1.888972 -9.212689 1.712088 0 0 0 0 0
-1.724931 -9.223007 1.709422 0 0 0 0 0
-1.554474 -9.217626 1.735365 0 0 0 0 0
-1.23563 -9.274158 1.714522 0 0 0 0 0
-1.143599 -9.244354 1.723613 0 0 0 0 0
-1.040369 -9.236587 1.717864 0 0 0 0 0
-0.9824093 -9.214859 1.726544 0 0 0 0 0
-0.8279376 -9.237216 1.729742 0 0 0 0 0
-0.7581608 -9.266202 1.737228 0 0 0 0 0
-0.6467631 -9.250712 1.734358 0 0 0 0 0
-0.5383554 -9.257016 1.725636 0 0 0 0 0
-0.4670218 -9.24284 1.733748 0 0 0 0 0
-0.372793 -9.255204 1.7396 0 0 0 0 0
-0.2607666 -9.256362 1.733832 0 0 0 0 0
-0.1725359 -9.259089 1.721697 0 0 0 0 0
-0.02079797 -9.228041 1.725521 0 0 0 0 0
0.05125351 -9.232657 1.730887 0.3333333 0 0 0 0
0.1933647 -9.216915 1.750866 0 0 0 0 0
0.3368851 -9.21556 1.7334 0 0 0 0 0
0.4559498 -9.23513 1.739386 0 0 0 0 0
0.5321715 -9.221498 1.714572 0 0 0 0 0
0.7696786 -9.2588 1.721503 0 0 0 0 0
1.576817 -9.222775 1.751336 0 0 0 0 0
1.671993 -9.24971 1.719062 0 0 0 0 0
-4.417632 -9.142263 1.70791 0 0 0 0 0
-4.35315 -9.160574 1.719931 0 0 0 0 0
-4.075628 -9.157427 1.706143 0 0 0 0 0
-3.942332 -9.118808 1.726431 0 0 0 0 0
-3.861276 -9.194651 1.713609 0 0 0 0 0
-3.758277 -9.171304 1.737377 0 0 0 0 0
-3.61994 -9.135561 1.71888 0 0 0 0 0
-3.54459 -9.145082 1.714733 0 0 0 0 0
-3.414752 -9.148007 1.712428 0 0 0 0 0
-3.358667 -9.16423 1.714921 0 0 0 0 0
-3.235836 -9.180875 1.730236 0 0 0 0 0
-3.158354 -9.142792 1.71501 0 0 0 0 0
-2.955789 -9.150038 1.719894 0 0 0 0 0
-2.850548 -9.138428 1.708807 0 0 0 0 0
-2.75114 -9.140553 1.711085 0 0 0 0 0
-2.642112 -9.132041 1.720796 0 0 0 0 0
-2.571565 -9.132759 1.710433 0 0 0 0 0
-2.494704 -9.179455 1.723705 0 0 0 0 0
-2.344216 -9.130661 1.70628 0 0 0 0 0
-2.247943 -9.135305 1.720081 0 0 0 0 0
-2.150862 -9.16007 1.72212 0 0 0 0 0
-2.011935 -9.189277 1.715192 0 0 0 0 0
-1.843371 -9.113355 1.74278 0 0 0 0 0
-1.715917 -9.179114 1.723611 0 0 0 0 0
-1.64685 -9.158488 1.726679 0 0 0 0 0
-1.595824 -9.192845 1.737378 0 0 0 0 0
-1.459791 -9.147413 1.72745 0 0 0 0 0
-1.366327 -9.135253 1.72493 0 0 0 0 0
-1.250268 -9.153969 1.718643 0 0 0 0 0
-1.140201 -9.1447 1.722191 0 0 0 0 0
-1.049774 -9.16229 1.726077 0 0 0 0 0
-0.9757655 -9.152623 1.719896 0 0 0 0 0
-0.8432288 -9.121922 1.720755 0 0 0 0 0
-0.7322296 -9.138338 1.72368 0 0 0 0 0
-0.6522171 -9.138997 1.727295 0 0 0 0 0
-0.5499166 -9.159205 1.730809 0 0 0 0 0
-0.4463015 -9.127288 1.730246 0.1 0 0 0 0
-0.3624261 -9.136863 1.725069 0 0 0 0 0
-0.2504758 -9.13968 1.727454 0 0 0 0 0
-0.1292449 -9.129027 1.733401 0 0 0 0 0
-0.0662186 -9.166002 1.722804 0 0 0 0 0
0.06253114 -9.162942 1.722848 0.3333333 0 0 0 0
0.1518248 -9.149697 1.7321 0 0 0 0 0
0.2353168 -9.184429 1.730823 0 0 0 0 0
0.3356076 -9.162531 1.723283 0 0 0 0 0
0.4346306 -9.146293 1.714365 0.5 0 0 0 0
0.5501074 -9.170514 1.74466 0 0 0 0 0
0.6625445 -9.185128 1.717074 0 0 0 0 0
0.76711 -9.111456 1.719115 0 0 0 0 0
1.047649 -9.120888 1.713347 1 0 0 0 0
1.122243 -9.139228 1.730442 0 0 0 0 0
1.925077 -9.130045 1.725832 0 0 0 0 0
-4.459919 -9.074188 1.716496 0.5 0 0 0 0
-4.341339 -9.056406 1.725021 0 0 0 0 0
-4.204249 -9.083867 1.713474 0 0 0 0 0
-4.149989 -9.046951 1.715083 0 0 0 0 0
-3.870646 -9.082653 1.722394 0 0 0 0 0
-3.759991 -9.043923 1.720148 0 0 0 0 0
-3.6717 -9.063675 1.708428 0 0 0 0 0
-3.553523 -9.031633 1.712446 0 0 0 0 0
-3.445652 -9.069371 1.713552 0 0 0 0 0
-3.36223 -9.025565 1.713597 0 0 0 0 0
-3.225328 -9.052293 1.710169 0 0 0 0 0
-3.146474 -9.056254 1.716474 0 0 0 0 0
-3.046455 -9.06423 1.714057 0 0 0 0 0
-2.952175 -9.030004 1.706791 0 0 0 0 0
-2.848495 -9.037244 1.709551 0 0 0 0 0
-2.75784 -9.035923 1.710635 0 0 0 0 0
-2.653126 -9.046977 1.708077 0 0 0 0 0
-2.541962 -9.054111 1.706438 0 0 0 0 0
-2.457532 -9.027935 1.71032 0.4285714 0 0 0 0
-2.341809 -9.036028 1.712088 0.1538462 0 0 0 0
-2.255183 -9.058645 1.719094 0 0 0 0 0
-2.169234 -9.026155 1.719669 0 0 0 0 0
-2.003505 -9.047062 1.725391 0 0 0 0 0
-1.94121 -9.069769 1.722779 0 0 0 0 0
-1.853606 -9.013372 1.715777 0 0 0 0 0
-1.761375 -9.041862 1.722725 0 0 0 0 0
-1.631981 -9.030344 1.719904 0 0 0 0 0
-1.573133 -9.005152 1.726384 0 0 0 0 0
-1.443191 -9.024429 1.717578 0 0 0 0 0
-1.351282 -9.043769 1.731159 0 0 0 0 0
