# .PCD v0.7 - Point Cloud Data file format
VERSION 0.7
FIELDS x y z intensity normal_x normal_y normal_z curvature
SIZE 4 4 4 4 4 4 4 4
TYPE F F F F F F F F
COUNT 1 1 1 1 1 1 1 1
WIDTH 1210
HEIGHT 1
VIEWPOINT 0 0 0 1 0 0 0
POINTS 1210
DATA ascii
-0.4199763 1.757493 0.9980891 107 0 0 0 0
-0.3865894 1.7581 1.031463 117 0 0 0 0
-0.5603518 1.741375 0.9916443 96 0 0 0 0
-0.5168916 1.747699 1.026701 112 0 0 0 0
-0.6578959 1.736978 1.029447 108 0 0 0 0
-0.8049113 1.712124 1.031811 99 0 0 0 0
-0.6182556 1.733852 1.044551 122 0 0 0 0
-0.7570199 1.72202 1.053106 104 0 0 0 0
-0.9114212 1.712627 1.070908 108 0 0 0 0
-1.078585 1.694067 1.094634 102 0 0 0 0
-2.187081 1.607628 1.422189 83 0 0 0 0
-0.8672877 1.714858 1.073598 113 0 0 0 0
-1.83358 1.63735 1.256462 109 0 0 0 0
-1.019517 1.700608 1.095487 91 0 0 0 0
-2.082123 1.615115 1.345973 83 0 0 0 0
-1.191313 1.686459 1.128382 97 0 0 0 0
-2.391399 1.594348 1.467785 91 0 0 0 0
-1.38853 1.674798 1.176027 96 0 0 0 0
-2.761336 1.561533 1.623419 77 0 0 0 0
-1.139918 1.691042 1.112886 104 0 0 0 0
-2.305164 1.597108 1.374132 90 0 0 0 0
-1.320195 1.684676 1.158797 114 0 0 0 0
-2.632962 1.571155 1.507945 77 0 0 0 0
-1.520149 1.668767 1.212882 107 0 0 0 0
-3.040117 1.538908 1.683543 92 0 0 0 0
-1.746551 1.645334 1.28089 100 0 0 0 0
-4.643623 0.5481967 2.05443 51 0 0 0 0
-3.556857 1.493879 1.920292 70 0 0 0 0
-1.4606 1.672144 1.176455 111 0 0 0 0
-4.5432 0.2466885 2.05764 47 0 0 0 0
-2.935557 1.542204 1.548502 86 0 0 0 0
-1.665275 1.653951 1.23743 104 0 0 0 0
-5.040092 0.6124435 2.003348 0 0 0 0 0
-3.406462 1.51455 1.756094 74 0 0 0 0
-1.908085 1.635959 1.320376 99 0 0 0 0
-4.766078 0.2961163 1.94369 12 0 0 0 0
-3.989089 1.460539 2.021346 75 0 0 0 0
-4.779271 0.01241768 2.00787 77 0 0 0 0
-4.078697 1.179521 2.052503 49 0 0 0 0
-4.692425 -0.2661543 2.04651 58 0 0 0 0
-3.872653 1.470517 1.834118 64 0 0 0 0
-4.782753 0.0001724201 1.775531 84 0 0 0 0
-4.366995 1.348042 2.054328 63 0 0 0 0
-4.67233 -0.2592728 1.803575 69 0 0 0 0
-4.351956 1.034379 2.049584 53 0 0 0 0
-3.501867 -0.3969248 1.421069 132 0 0 0 0
-4.321591 0.7272986 2.052574 47 0 0 0 0
-3.487032 -0.5905449 1.48682 126 0 0 0 0
-4.769204 1.1767 2.054806 61 0 0 0 0
-3.493483 -0.4268796 1.233789 141 0 0 0 0
-4.719964 0.8599902 2.054188 54 0 0 0 0
-3.480851 -0.6083956 1.294783 132 0 0 0 0
-3.465865 -0.7925587 1.364347 134 0 0 0 0
-3.446486 -0.9734714 1.443509 125 0 0 0 0
-3.459908 -0.8489191 1.166078 124 0 0 0 0
-3.449713 -1.021849 1.24101 109 0 0 0 0
-3.961403 -1.375498 1.522221 125 0 0 0 0
-3.945745 -1.576468 1.632379 133 0 0 0 0
-3.949164 -1.475679 1.280803 117 0 0 0 0
-3.935938 -1.667544 1.380558 131 0 0 0 0
-3.926125 -1.865143 1.494646 141 0 0 0 0
-3.918725 -2.062388 1.623158 126 0 0 0 0
-3.910319 -2.009969 1.241608 134 0 0 0 0
-3.906351 -2.204197 1.359625 132 0 0 0 0
-3.892001 -2.396153 1.486811 133 0 0 0 0
-3.874197 -2.582096 1.625172 115 0 0 0 0
-1.387795 -0.9486877 0.4624778 2 0 0 0 0
-3.847382 -3.177586 1.657413 2 0 0 0 0
-0.5253471 -1.279709 0.3239226 2 0 0 0 0
-0.521859 -1.304805 0.3597832 0 0 0 0 0
-0.4973809 -7.329111 1.591548 1 0 0 0 0
-0.5155613 -1.314843 0.3912395 1 0 0 0 0
-0.4899927 -1.650863 0.348207 64 0 0 0 0
0.3365247 -7.033035 1.307713 69 0 0 0 0
-0.481495 -1.661826 0.3844906 31 0 0 0 0
0.3003885 -7.008094 1.403511 56 0 0 0 0
-0.4778791 -1.680413 0.4236099 9 0 0 0 0
0.2580694 -6.986348 1.494885 50 0 0 0 0
-0.4734788 -1.681794 0.4577945 2 0 0 0 0
0.21042 -6.983335 1.577852 36 0 0 0 0
1.097885 -6.882147 1.327396 58 0 0 0 0
1.038896 -6.863348 1.402602 75 0 0 0 0
0.9841729 -6.902539 1.482991 73 0 0 0 0
0.9249045 -6.937177 1.550167 64 0 0 0 0
0.4539657 -1.709115 0.3749694 6 0 0 0 0
0.4915337 -1.919655 0.4325114 1 0 0 0 0
0.511686 -2.083639 0.4812143 2 0 0 0 0
3.503157 -6.675366 1.655996 22 0 0 0 0
0.495382 -2.11211 0.4978969 0 0 0 0 0
3.409579 -6.712433 1.667086 14 0 0 0 0
0.8037431 -1.674217 0.436494 1 0 0 0 0
0.779519 -1.674108 0.4313936 2 0 0 0 0
1.074907 -1.640357 0.4847473 8 0 0 0 0
3.999401 -3.315847 1.382267 95 0 0 0 0
1.049691 -1.651429 0.4796157 2 0 0 0 0
3.944837 -3.323543 1.29546 92 0 0 0 0
1.018266 -1.651384 0.469706 2 0 0 0 0
4.592703 -2.924862 1.705714 78 0 0 0 0
0.996812 -1.660359 0.4587053 3 0 0 0 0
4.604971 -2.997385 1.636538 97 0 0 0 0
3.934433 -4.728551 1.548246 79 0 0 0 0
4.597584 -3.046567 1.552199 103 0 0 0 0
3.942405 -4.874305 1.543851 81 0 0 0 0
4.607981 -3.088724 1.462347 106 0 0 0 0
1.249188 -1.616256 0.5127161 6 0 0 0 0
4.54645 -2.282077 1.71479 103 0 0 0 0
1.22634 -1.622396 0.4921226 14 0 0 0 0
4.543977 -2.324802 1.628413 105 0 0 0 0
3.858957 -3.765226 1.461107 80 0 0 0 0
4.547231 -2.358178 1.535418 101 0 0 0 0
3.869082 -3.87668 1.436614 96 0 0 0 0
4.542023 -2.36913 1.431722 107 0 0 0 0
3.87464 -3.974364 1.39861 89 0 0 0 0
4.493992 -1.710881 1.742195 114 0 0 0 0
3.873519 -4.050662 1.344543 78 0 0 0 0
4.502201 -1.737986 1.648143 112 0 0 0 0
4.175545 -3.307346 1.552864 79 0 0 0 0
4.509115 -1.753597 1.547147 109 0 0 0 0
4.075986 -3.307836 1.467219 88 0 0 0 0
4.501618 -1.745992 1.436861 118 0 0 0 0
4.385273 -1.17788 1.763681 109 0 0 0 0
4.378982 -1.182381 1.658192 108 0 0 0 0
4.379584 -1.177289 1.550156 128 0 0 0 0
4.378006 -1.156162 1.438106 121 0 0 0 0
1.178146 -0.212331 0.4963468 0 0 0 0 0
1.182978 -0.2069493 0.4676307 3 0 0 0 0
1.187796 -0.1974515 0.4386735 3 0 0 0 0
3.804954 -0.2293342 1.693559 118 0 0 0 0
3.808848 -0.2053221 1.593033 123 0 0 0 0
3.803573 -0.1703807 1.488833 134 0 0 0 0
3.796317 -0.1203305 1.385528 132 0 0 0 0
3.772163 0.1599698 1.783652 121 0 0 0 0
3.77496 0.2006305 1.681221 122 0 0 0 0
3.775749 0.2524695 1.578944 141 0 0 0 0
3.014148 1.115525 1.799384 33 0 0 0 0
4.25838 0.3629695 1.661567 150 0 0 0 0
2.766289 1.102414 1.58603 36 0 0 0 0
4.053664 0.5987411 2.048481 52 0 0 0 0
2.525195 1.086771 1.391272 40 0 0 0 0
4.226474 0.6918407 2.018258 114 0 0 0 0
2.364452 1.105613 1.253719 107 0 0 0 0
4.223658 0.7707825 1.901894 142 0 0 0 0
2.363795 1.17213 1.559621 99 0 0 0 0
4.218027 0.8650737 1.790577 141 0 0 0 0
2.352335 1.256403 1.501648 100 0 0 0 0
3.749962 0.95917 2.047442 55 0 0 0 0
2.348174 1.355481 1.451263 98 0 0 0 0
3.962264 1.101969 2.054523 69 0 0 0 0
2.334118 1.463207 1.403933 96 0 0 0 0
3.88953 1.177236 1.916895 40 0 0 0 0
2.339746 1.499007 1.716004 95 0 0 0 0
3.471577 1.149526 1.630326 34 0 0 0 0
2.325696 1.607715 1.66886 85 0 0 0 0
2.319068 1.737735 1.632564 91 0 0 0 0
2.301567 1.879351 1.599919 89 0 0 0 0
2.312243 1.873382 1.91205 86 0 0 0 0
1.487039 1.902491 1.678288 86 0 0 0 0
2.232881 1.963011 1.833419 71 0 0 0 0
1.330954 1.889926 1.556003 87 0 0 0 0
2.026835 1.941415 1.663602 78 0 0 0 0
1.182604 1.883063 1.451792 95 0 0 0 0
1.840973 1.932525 1.522858 80 0 0 0 0
1.034595 1.871583 1.355862 93 0 0 0 0
1.905999 1.935475 1.818158 75 0 0 0 0
1.140656 1.874962 1.577256 84 0 0 0 0
1.725701 1.917449 1.666296 79 0 0 0 0
0.9984753 1.863247 1.47697 94 0 0 0 0
1.556174 1.904942 1.533367 89 0 0 0 0
0.8608516 1.855023 1.390396 109 0 0 0 0
1.394455 1.896783 1.420291 87 0 0 0 0
-0.04942456 1.781039 1.301561 94 0 0 0 0
0.7225704 1.842182 1.312143 101 0 0 0 0
0.1015412 1.794674 1.396767 104 0 0 0 0
0.8435206 1.854697 1.506137 89 0 0 0 0
-0.022954 1.778604 1.362153 103 0 0 0 0
0.7111207 1.8434 1.42488 102 0 0 0 0
-0.1529263 1.77228 1.340806 103 0 0 0 0
0.5779833 1.827857 1.34998 96 0 0 0 0
-0.288658 1.757774 1.325279 96 0 0 0 0
0.4475161 1.820345 1.291764 92 0 0 0 0
-0.1240132 1.773425 1.387716 108 0 0 0 0
0.5781882 1.834686 1.454134 107 0 0 0 0
-0.2526255 1.765434 1.375164 101 0 0 0 0
0.449269 1.815086 1.384407 84 0 0 0 0
-0.387111 1.750798 1.365671 103 0 0 0 0
0.3220529 1.80843 1.33233 105 0 0 0 0
-0.5339333 1.741228 1.372915 90 0 0 0 0
0.1921008 1.797526 1.286692 95 0 0 0 0
-0.3499396 1.753322 1.394171 108 0 0 0 0
0.3322835 1.806572 1.412027 103 0 0 0 0
-0.4868373 1.746096 1.39942 99 0 0 0 0
0.2083925 1.799416 1.367872 93 0 0 0 0
-0.6315138 1.733821 1.410138 108 0 0 0 0
0.08173788 1.790165 1.32954 115 0 0 0 0
-0.7944487 1.725252 1.439614 98 0 0 0 0
-0.5861239 1.737911 1.419245 107 0 0 0 0
-0.7332724 1.730287 1.443163 115 0 0 0 0
-0.8960263 1.717842 1.476992 108 0 0 0 0
-1.076177 1.70063 1.525908 88 0 0 0 0
-0.8404869 1.725835 1.465033 122 0 0 0 0
-1.000121 1.706756 1.501556 95 0 0 0 0
-1.18595 1.694066 1.563799 107 0 0 0 0
-1.393952 1.672593 1.641554 91 0 0 0 0
-1.116587 1.700393 1.522447 96 0 0 0 0
-1.303936 1.685527 1.59144 97 0 0 0 0
-1.518467 1.665936 1.681019 98 0 0 0 0
-1.766001 1.636753 1.795593 84 0 0 0 0
-1.431444 1.671338 1.606181 99 0 0 0 0
-1.649606 1.651054 1.704942 88 0 0 0 0
-2.809228 1.23289 2.046017 64 0 0 0 0
-1.915324 1.631284 1.840366 90 0 0 0 0
-2.851025 0.9952846 2.044619 66 0 0 0 0
-2.23732 1.602671 2.019189 89 0 0 0 0
-2.877506 0.7511165 2.050525 60 0 0 0 0
-1.806878 1.637862 1.726174 87 0 0 0 0
-3.027321 1.153848 2.046087 70 0 0 0 0
-2.085987 1.621372 1.877021 82 0 0 0 0
-3.047061 0.9149163 2.045576 56 0 0 0 0
-2.401137 1.576245 2.051427 83 0 0 0 0
-3.043783 0.6687644 2.044801 61 0 0 0 0
-2.500938 1.356014 2.051598 58 0 0 0 0
-3.028187 0.4221276 2.051579 64 0 0 0 0
-2.281032 1.600136 1.904381 86 0 0 0 0
-3.29591 0.8115616 2.051472 69 0 0 0 0
-2.555346 1.519831 2.048075 84 0 0 0 0
-3.263694 0.5656316 2.04854 63 0 0 0 0
-3.509605 -0.4224842 1.851637 140 0 0 0 0
-2.640992 1.299857 2.051791 59 0 0 0 0
-3.214411 0.3193527 2.046884 53 0 0 0 0
-3.494143 -0.6338212 1.930266 125 0 0 0 0
-2.703722 1.063022 2.052408 56 0 0 0 0
-3.14591 0.07708471 2.050294 60 0 0 0 0
-3.47119 -0.8514898 2.020635 133 0 0 0 0
-2.753412 1.460836 2.049076 72 0 0 0 0
-3.531589 0.4261314 2.052459 57 0 0 0 0
-3.325435 -1.036016 2.055223 58 0 0 0 0
-3.450345 0.1840093 2.049266 56 0 0 0 0
-3.472942 -0.8427558 1.779948 132 0 0 0 0
-3.348092 -0.05415482 2.045964 58 0 0 0 0
-3.45188 -1.043721 1.873546 117 0 0 0 0
-3.234572 -0.2814391 2.04935 51 0 0 0 0
-3.546493 -1.294194 2.050098 59 0 0 0 0
-3.730307 -0.0006570673 2.050237 59 0 0 0 0
-3.319808 -1.429444 2.058101 57 0 0 0 0
-3.604855 -0.2306888 2.051599 63 0 0 0 0
-3.960842 -1.465379 1.994924 135 0 0 0 0
-3.463346 -0.44989 2.054352 68 0 0 0 0
-3.807138 -1.6361 2.053181 66 0 0 0 0
-3.290209 -0.6522698 2.047789 57 0 0 0 0
-3.527869 -1.739205 2.050853 56 0 0 0 0
-3.260498 -1.821503 2.051919 48 0 0 0 0
-3.919888 -1.994317 1.975864 131 0 0 0 0
-3.772326 -2.147747 2.055969 48 0 0 0 0
-2.886357 -3.022872 2.058352 12 0 0 0 0
-3.465135 -2.194913 2.052881 56 0 0 0 0
-3.175879 -2.221093 2.052449 45 0 0 0 0
-3.876473 -2.573479 1.991013 104 0 0 0 0
-0.5842391 -1.008804 0.4474289 0 0 0 0 0
-0.5707721 -1.035858 0.4825104 0 0 0 0 0
-0.5322347 -1.011131 0.495794 2 0 0 0 0
-2.095699 -4.107459 2.046392 38 0 0 0 0
-0.502324 -1.190366 0.5116537 1 0 0 0 0
-1.903985 -4.665372 2.041185 27 0 0 0 0
-1.74487 -4.421666 2.042842 36 0 0 0 0
-1.775809 -5.599762 2.052802 19 0 0 0 0
-1.600521 -5.25514 2.043532 17 0 0 0 0
-1.461825 -4.961873 2.043366 19 0 0 0 0
-1.353097 -4.707101 2.04326 20 0 0 0 0
-1.158955 -5.817312 2.052811 17 0 0 0 0
-1.054655 -5.479668 2.045111 16 0 0 0 0
-0.9778133 -5.20412 2.049209 15 0 0 0 0
-0.9194486 -4.941483 2.041434 12 0 0 0 0
0.6270431 -5.442884 2.053955 21 0 0 0 0
-0.5199929 -5.935311 2.058505 16 0 0 0 0
0.5645993 -5.318324 2.048441 21 0 0 0 0
-0.4817196 -5.62368 2.050616 14 0 0 0 0
1.320761 -5.529637 2.054177 23 0 0 0 0
-0.4600645 -5.365341 2.050653 13 0 0 0 0
1.242482 -5.427033 2.05229 21 0 0 0 0
-0.4541937 -5.160534 2.054461 11 0 0 0 0
1.165191 -5.339538 2.049547 20 0 0 0 0
0.1233343 -5.902778 2.053755 22 0 0 0 0
1.092951 -5.289692 2.046617 22 0 0 0 0
0.1048467 -5.652783 2.050793 21 0 0 0 0
0.411014 -1.209821 0.4982853 4 0 0 0 0
0.07952074 -5.443959 2.050519 19 0 0 0 0
0.4003394 -1.225448 0.5059524 1 0 0 0 0
0.04719948 -5.2685 2.049319 19 0 0 0 0
1.680275 -5.155989 2.046971 28 0 0 0 0
0.7436084 -5.761784 2.0521 24 0 0 0 0
1.615169 -5.176532 2.044716 22 0 0 0 0
2.946483 -4.022168 2.042621 29 0 0 0 0
0.6864307 -5.592998 2.054726 30 0 0 0 0
2.282344 -4.799826 2.049027 16 0 0 0 0
2.967748 -4.184122 2.042741 28 0 0 0 0
2.219343 -4.843097 2.048506 18 0 0 0 0
3.013043 -4.371535 2.042169 22 0 0 0 0
2.165469 -4.911235 2.050047 3 0 0 0 0
3.164873 -3.400177 2.045301 37 0 0 0 0
2.125565 -5.002512 2.049704 2 0 0 0 0
3.215152 -3.569339 2.044919 35 0 0 0 0
2.648875 -4.350604 2.045644 20 0 0 0 0
3.292692 -3.766048 2.049429 32 0 0 0 0
2.617017 -4.453232 2.045887 29 0 0 0 0
3.379828 -3.96697 2.043587 21 0 0 0 0
2.595169 -4.573108 2.04552 27 0 0 0 0
3.328586 -2.926123 2.051805 43 0 0 0 0
2.583075 -4.705001 2.038414 22 0 0 0 0
3.425994 -3.108118 2.053195 40 0 0 0 0
3.4506 -1.56085 2.050097 42 0 0 0 0
2.944479 -3.884403 2.046319 30 0 0 0 0
3.535134 -3.298994 2.047338 36 0 0 0 0
3.646981 -1.693435 2.050689 48 0 0 0 0
3.689673 -3.519116 2.049391 38 0 0 0 0
3.86927 -1.830709 2.048324 44 0 0 0 0
3.414767 -2.447432 2.047062 45 0 0 0 0
4.129603 -1.969278 2.046206 49 0 0 0 0
3.548114 -2.621141 2.04652 46 0 0 0 0
3.401947 -1.151405 2.049981 48 0 0 0 0
3.720771 -2.819617 2.051926 42 0 0 0 0
3.618372 -1.253923 2.052383 56 0 0 0 0
3.904913 -3.013698 2.044454 40 0 0 0 0
3.859669 -1.35388 2.051203 47 0 0 0 0
3.445949 -1.987864 2.042983 42 0 0 0 0
4.141078 -1.450403 2.052098 47 0 0 0 0
3.625605 -2.151991 2.0495 43 0 0 0 0
3.324415 -0.7717992 2.052534 56 0 0 0 0
3.829114 -2.323572 2.051603 46 0 0 0 0
3.53955 -0.8345651 2.049258 53 0 0 0 0
4.049218 -2.492289 2.043389 43 0 0 0 0
3.794997 -0.894823 2.052966 49 0 0 0 0
4.067097 -0.9423903 2.04821 45 0 0 0 0
3.209584 -0.4180405 2.047648 51 0 0 0 0
3.433974 -0.4446186 2.051851 59 0 0 0 0
3.676164 -0.4612117 2.051106 56 0 0 0 0
3.828894 -0.4489899 1.992217 138 0 0 0 0
3.069846 -0.0919662 2.044656 62 0 0 0 0
3.285127 -0.08366237 2.047671 65 0 0 0 0
3.511203 -0.06028546 2.045966 59 0 0 0 0
3.768539 -0.01696657 2.050833 92 0 0 0 0
2.916141 0.2046583 2.041761 52 0 0 0 0
3.12061 0.2494902 2.051097 60 0 0 0 0
3.323555 0.3088953 2.047972 64 0 0 0 0
3.537496 0.3895103 2.045351 59 0 0 0 0
2.753783 0.4774243 2.046934 62 0 0 0 0
2.927919 0.5511543 2.049722 68 0 0 0 0
3.104909 0.6417246 2.049464 59 0 0 0 0
3.290948 0.7552818 2.051146 72 0 0 0 0
2.5785 0.7276217 2.053462 63 0 0 0 0
2.720433 0.8245907 2.052781 64 0 0 0 0
2.860137 0.937781 2.047108 72 0 0 0 0
3.008195 1.076588 2.051029 75 0 0 0 0
2.386071 0.9522406 2.055853 70 0 0 0 0
2.497987 1.069559 2.056163 66 0 0 0 0
2.372467 1.09166 1.872942 99 0 0 0 0
2.361211 1.176519 1.795732 97 0 0 0 0
2.177503 1.152265 2.054254 66 0 0 0 0
2.260495 1.285446 2.057716 61 0 0 0 0
2.328097 1.42654 2.052095 91 0 0 0 0
2.332669 1.549438 2.00614 95 0 0 0 0
1.961665 1.330875 2.054225 54 0 0 0 0
2.006409 1.468249 2.052914 61 0 0 0 0
2.042188 1.617585 2.053208 71 0 0 0 0
2.060834 1.776663 2.050945 67 0 0 0 0
1.732969 1.483899 2.048639 70 0 0 0 0
1.753061 1.628775 2.056873 71 0 0 0 0
1.752777 1.776455 2.056278 71 0 0 0 0
1.719846 1.914088 2.03983 81 0 0 0 0
1.508811 1.625306 2.055938 66 0 0 0 0
1.488495 1.758026 2.054346 68 0 0 0 0
1.445771 1.88765 2.042892 91 0 0 0 0
1.297156 1.886851 1.906173 71 0 0 0 0
1.271375 1.738747 2.055434 72 0 0 0 0
1.221076 1.863368 2.054544 73 0 0 0 0
1.086145 1.869448 1.934866 83 0 0 0 0
0.9453895 1.862612 1.819094 82 0 0 0 0
1.027952 1.832947 2.054589 80 0 0 0 0
0.9049169 1.84694 1.957312 81 0 0 0 0
0.7697473 1.841292 1.852047 87 0 0 0 0
0.6360199 1.83275 1.761106 83 0 0 0 0
0.754293 1.844501 1.991801 80 0 0 0 0
0.6221301 1.83094 1.889662 79 0 0 0 0
0.4927728 1.823682 1.807953 88 0 0 0 0
0.3619771 1.814803 1.740255 94 0 0 0 0
0.4911823 1.822106 1.918742 86 0 0 0 0
-0.3544371 1.756868 1.841708 91 0 0 0 0
0.36308 1.809619 1.843123 81 0 0 0 0
-0.4999803 1.745874 1.855684 96 0 0 0 0
0.2358008 1.806378 1.78857 86 0 0 0 0
-0.6596586 1.734881 1.891618 86 0 0 0 0
0.1039 1.797341 1.743292 88 0 0 0 0
-0.4558039 1.749944 1.859767 98 0 0 0 0
-1.517341 1.54038 2.057477 78 0 0 0 0
0.2461827 1.804554 1.873366 97 0 0 0 0
-0.6027247 1.741073 1.889476 85 0 0 0 0
-1.616286 1.390053 2.053412 69 0 0 0 0
0.1191537 1.7951 1.824757 95 0 0 0 0
-0.7593698 1.721852 1.925769 85 0 0 0 0
-1.705123 1.22408 2.051073 70 0 0 0 0
-0.01028602 1.788937 1.791126 91 0 0 0 0
-0.9386983 1.709601 1.995868 87 0 0 0 0
-1.786583 1.046252 2.057399 51 0 0 0 0
-2.555025 0.424979 2.05544 68 0 0 0 0
-0.1463963 1.775191 1.765498 86 0 0 0 0
-0.7043906 1.731514 1.899918 90 0 0 0 0
-1.755202 1.373667 2.057948 70 0 0 0 0
-2.499587 0.2262337 2.055345 61 0 0 0 0
0.01317383 1.791409 1.852781 100 0 0 0 0
-0.8643109 1.717971 1.95473 93 0 0 0 0
-1.825254 1.200612 2.049438 72 0 0 0 0
-2.421207 0.02772068 2.053351 67 0 0 0 0
-0.1170654 1.77725 1.823781 87 0 0 0 0
-1.044339 1.701284 2.032165 97 0 0 0 0
-1.891776 1.021034 2.053811 38 0 0 0 0
-2.320693 -1.246317 2.049784 53 0 0 0 0
-2.323779 -0.1670086 2.052322 65 0 0 0 0
-0.2535719 1.769747 1.813607 86 0 0 0 0
-1.203192 1.614496 2.059843 66 0 0 0 0
-1.937411 0.8238107 2.054005 42 0 0 0 0
-2.919115 -1.314887 2.047695 63 0 0 0 0
-2.701537 0.1194204 2.055501 65 0 0 0 0
-0.3966753 1.753308 1.813213 80 0 0 0 0
-0.9729607 1.710361 1.96582 87 0 0 0 0
-1.975248 1.175542 2.051758 72 0 0 0 0
-2.689049 -1.394228 2.04073 66 0 0 0 0
-2.605166 -0.07100937 2.053291 66 0 0 0 0
-0.2201718 1.773137 1.848553 98 0 0 0 0
-1.148916 1.685263 2.044555 85 0 0 0 0
-2.026791 0.9940285 2.05516 33 0 0 0 0
-1.930719 -2.638905 2.045737 53 0 0 0 0
-2.481293 -1.469706 2.051691 67 0 0 0 0
-2.490741 -0.2566748 2.052273 60 0 0 0 0
-1.293111 1.582913 2.062587 76 0 0 0 0
-2.061299 0.7992181 2.058417 44 0 0 0 0
-1.738877 -2.536677 2.043071 48 0 0 0 0
-2.261011 -1.51879 2.051861 62 0 0 0 0
-2.363193 -0.4328585 2.054556 61 0 0 0 0
-1.416149 1.44114 2.057034 66 0 0 0 0
-2.072928 0.5928487 2.057547 45 0 0 0 0
-2.106606 -3.156877 2.050615 52 0 0 0 0
-2.862305 -1.704881 2.047013 63 0 0 0 0
-0.5772856 -3.765075 2.047123 17 0 0 0 0
-2.818925 -0.2119465 2.056635 66 0 0 0 0
-1.267693 1.675238 2.052539 109 0 0 0 0
-2.194671 0.9573682 2.060081 38 0 0 0 0
-1.892063 -3.017 2.041932 71 0 0 0 0
-2.618259 -1.741807 2.041395 68 0 0 0 0
-0.5393516 -3.624704 2.051763 18 0 0 0 0
-2.678732 -0.3844678 2.049934 60 0 0 0 0
-1.395265 1.5585 2.06005 73 0 0 0 0
-2.207448 0.7607681 2.056012 42 0 0 0 0
-1.720505 -2.913056 2.057723 87 0 0 0 0
-0.5146886 -3.491106 2.049547 21 0 0 0 0
-2.533216 -0.5494342 2.051576 72 0 0 0 0
-1.509122 1.413851 2.058675 73 0 0 0 0
-2.205991 0.5570014 2.057143 45 0 0 0 0
-1.548082 -2.771538 2.046975 51 0 0 0 0
1.285857 -3.477221 2.052946 41 0 0 0 0
-2.168516 -1.78437 2.048825 52 0 0 0 0
-0.2143353 -3.969668 2.052875 12 0 0 0 0
-2.379529 -0.704132 2.057887 62 0 0 0 0
-1.610007 1.25117 2.055404 69 0 0 0 0
-2.192158 0.3494374 2.067242 82 0 0 0 0
-1.790655 -3.442046 2.0532 34 0 0 0 0
1.24687 -3.503404 2.052621 45 0 0 0 0
-0.1986954 -3.826873 2.050724 11 0 0 0 0
-2.890492 -0.5626881 2.051237 66 0 0 0 0
-2.381558 0.7030323 2.054141 67 0 0 0 0
-1.617731 -3.290778 2.055479 35 0 0 0 0
1.205655 -3.534558 2.046353 41 0 0 0 0
-0.1938782 -3.705052 2.052174 10 0 0 0 0
-2.726033 -0.7133017 2.051775 61 0 0 0 0
-2.360218 0.5028111 2.052085 66 0 0 0 0
-1.45823 -3.129447 2.04798 41 0 0 0 0
1.170462 -3.582962 2.039636 38 0 0 0 0
2.293323 -2.054877 2.041954 48 0 0 0 0
-0.1981406 -3.598971 2.051013 9 0 0 0 0
-2.542762 -0.8509704 2.047891 49 0 0 0 0
-2.32854 0.2989741 2.058095 74 0 0 0 0
-1.329332 -2.989076 2.049974 46 0 0 0 0
1.572393 -3.226494 2.048069 35 0 0 0 0
-2.056745 -2.049244 2.052275 50 0 0 0 0
2.382743 -2.202128 2.043101 47 0 0 0 0
0.1960208 -3.93667 2.054791 31 0 0 0 0
-2.364094 -0.9763772 2.05466 58 0 0 0 0
-2.266134 0.09434959 2.056607 54 0 0 0 0
-1.430868 -3.670052 2.053626 29 0 0 0 0
1.546457 -3.293254 2.046675 42 0 0 0 0
2.491315 -2.363228 2.04697 50 0 0 0 0
0.1816296 -3.825936 2.050845 27 0 0 0 0
-2.932664 -0.9344544 2.053917 70 0 0 0 0
3.029009 -1.127716 2.041992 58 0 0 0 0
-1.293268 -3.494025 2.049789 47 0 0 0 0
1.527735 -3.379173 2.049516 42 0 0 0 0
2.598101 -2.512569 2.031744 44 0 0 0 0
0.1593165 -3.731683 2.048175 24 0 0 0 0
-2.73631 -1.055391 2.052671 59 0 0 0 0
2.400836 -0.634346 2.050597 59 0 0 0 0
-1.176553 -3.329592 2.048676 46 0 0 0 0
1.508568 -3.465014 2.041186 38 0 0 0 0
-2.115528 -2.359584 2.042799 63 0 0 0 0
2.378947 -1.755903 2.046159 47 0 0 0 0
0.1322231 -3.664659 2.049716 23 0 0 0 0
-2.527072 -1.158668 2.049152 63 0 0 0 0
2.592154 -0.6885724 2.051991 57 0 0 0 0
-1.080818 -3.179331 2.047767 40 0 0 0 0
1.817991 -2.954841 2.046766 31 0 0 0 0
2.388767 0.4094459 2.052911 75 0 0 0 0
-1.907461 -2.294734 2.04362 56 0 0 0 0
2.501442 -1.899526 2.048697 49 0 0 0 0
0.5891355 -3.839011 2.054356 37 0 0 0 0
2.792191 -0.7334333 2.046656 62 0 0 0 0
-1.03842 -3.829974 2.048298 38 0 0 0 0
1.817339 -3.062285 2.049901 26 0 0 0 0
2.5385 0.5021471 2.048116 59 0 0 0 0
2.634783 -2.047482 2.046924 47 0 0 0 0
0.5526282 -3.759951 2.046331 35 0 0 0 0
3.011272 -0.7674454 2.042607 66 0 0 0 0
-0.9447466 -3.654222 2.047199 34 0 0 0 0
1.819467 -3.172725 2.047266 22 0 0 0 0
1.963541 0.4625893 2.058709 64 0 0 0 0
-2.146537 -2.740105 2.048468 57 0 0 0 0
2.791074 -2.201286 2.04312 41 0 0 0 0
0.516684 -3.718809 2.050464 33 0 0 0 0
2.345279 -0.3867599 2.050782 60 0 0 0 0
-0.8679147 -3.496326 2.049519 34 0 0 0 0
1.829479 -3.295739 2.04092 18 0 0 0 0
2.088155 0.5447987 2.050909 68 0 0 0 0
2.438781 -1.465958 2.055813 47 0 0 0 0
0.4764513 -3.686391 2.047014 33 0 0 0 0
2.538558 -0.4105738 2.052756 55 0 0 0 0
-0.8109378 -3.359234 2.054811 20 0 0 0 0
2.01635 -2.658827 2.041796 42 0 0 0 0
2.221091 0.6426183 2.051833 78 0 0 0 0
2.575926 -1.58982 2.050295 51 0 0 0 0
0.9528739 -3.673027 2.048683 39 0 0 0 0
2.739608 -0.4232447 2.049395 50 0 0 0 0
-0.6298246 -3.931143 2.049365 13 0 0 0 0
2.043789 -2.789927 2.045439 45 0 0 0 0
2.352175 0.7599009 2.057532 47 0 0 0 0
2.736178 -1.720271 2.046675 50 0 0 0 0
0.9107706 -3.654312 2.047806 40 0 0 0 0
2.948534 -0.4202307 2.043591 52 0 0 0 0
2.074963 -2.924817 2.042103 33 0 0 0 0
1.833047 0.6383947 2.058524 54 0 0 0 0
2.927652 -1.857854 2.047579 55 0 0 0 0
0.8688475 -3.654583 2.050462 38 0 0 0 0
2.269664 -0.1519866 2.049348 65 0 0 0 0
2.126324 -3.081785 2.041927 20 0 0 0 0
1.933691 0.7376336 2.052869 59 0 0 0 0
2.443822 -1.172223 2.047 50 0 0 0 0
0.8234757 -3.655767 2.041879 36 0 0 0 0
2.45691 -0.1454049 2.052222 64 0 0 0 0
2.176986 -2.361052 2.044791 47 0 0 0 0
2.034494 0.8512408 2.051963 78 0 0 0 0
2.614343 -1.281778 2.050993 48 0 0 0 0
2.650978 -0.1259026 2.051153 69 0 0 0 0
2.229132 -2.497863 2.040248 52 0 0 0 0
2.127344 0.9797566 2.053178 71 0 0 0 0
2.792434 -1.387309 2.044238 55 0 0 0 0
2.85089 -0.08955133 2.046925 64 0 0 0 0
2.328667 -2.685611 2.066941 63 0 0 0 0
1.701067 0.804719 2.07086 37 0 0 0 0
3.003855 -1.494441 2.045005 52 0 0 0 0
2.179134 0.06727247 2.049656 71 0 0 0 0
2.384861 -2.817955 2.038635 40 0 0 0 0
1.78193 0.9190817 2.071918 34 0 0 0 0
2.436376 -0.8970209 2.050466 58 0 0 0 0
2.354342 0.102272 2.053297 62 0 0 0 0
1.850613 1.043377 2.069235 44 0 0 0 0
2.616673 -0.9793351 2.05005 52 0 0 0 0
2.536466 0.1527686 2.055516 48 0 0 0 0
1.894806 1.171019 2.05493 66 0 0 0 0
2.814931 -1.058478 2.048493 59 0 0 0 0
2.709118 0.219603 2.046947 69 0 0 0 0
1.544382 0.9501935 2.06497 37 0 0 0 0
2.07049 0.2709564 2.046729 64 0 0 0 0
1.593133 1.069163 2.064119 38 0 0 0 0
2.229696 0.3331968 2.052092 67 0 0 0 0
1.632915 1.20009 2.064873 38 0 0 0 0
1.649303 1.329879 2.056167 68 0 0 0 0
1.381952 1.082376 2.064945 42 0 0 0 0
1.407941 1.208877 2.073615 39 0 0 0 0
1.407212 1.330157 2.061954 72 0 0 0 0
1.395809 1.457975 2.059089 70 0 0 0 0
1.205069 1.19307 2.05537 73 0 0 0 0
1.196898 1.311733 2.057773 71 0 0 0 0
1.173491 1.429513 2.054511 74 0 0 0 0
1.135235 1.550634 2.055533 68 0 0 0 0
1.028854 1.29701 2.059719 66 0 0 0 0
0.9924778 1.403581 2.056895 72 0 0 0 0
0.9420724 1.510308 2.053647 72 0 0 0 0
0.4509352 1.502637 2.05973 72 0 0 0 0
0.8779145 1.615891 2.056847 71 0 0 0 0
0.3525749 1.557847 2.055796 76 0 0 0 0
0.8402393 1.377656 2.05303 75 0 0 0 0
0.2446172 1.611177 2.062077 77 0 0 0 0
0.7810746 1.475202 2.055527 65 0 0 0 0
0.1265829 1.648764 2.065786 71 0 0 0 0
0.7088541 1.567993 2.056631 71 0 0 0 0
0.2477747 1.537836 2.062342 82 0 0 0 0
0.6205485 1.650126 2.055347 47 0 0 0 0
0.1365559 1.57225 2.061102 72 0 0 0 0
0.6490622 1.449186 2.056941 46 0 0 0 0
0.01749859 1.597857 2.063604 60 0 0 0 0
0.5677641 1.526234 2.055432 74 0 0 0 0
-0.1097471 1.6022 2.060377 73 0 0 0 0
0.4768001 1.603741 2.062546 70 0 0 0 0
0.03937305 1.549995 2.057749 54 0 0 0 0
0.3705555 1.664456 2.062007 66 0 0 0 0
-0.0795895 1.563067 2.06195 74 0 0 0 0
-0.5958295 1.478371 2.061595 77 0 0 0 0
-0.2047603 1.558996 2.060102 80 0 0 0 0
-0.7100053 1.406816 2.055708 74 0 0 0 0
-0.3338591 1.537468 2.059185 71 0 0 0 0
-0.820975 1.321194 2.054161 77 0 0 0 0
-0.1716104 1.549107 2.063013 80 0 0 0 0
-0.9296089 1.22291 2.06031 69 0 0 0 0
-0.293728 1.532693 2.061763 73 0 0 0 0
-0.8050625 1.408142 2.056725 83 0 0 0 0
-0.4189375 1.498585 2.05729 70 0 0 0 0
-0.90991 1.315894 2.057752 73 0 0 0 0
-0.5468521 1.451007 2.059545 71 0 0 0 0
-1.008677 1.209159 2.059868 79 0 0 0 0
-0.3829379 1.521632 2.058166 86 0 0 0 0
-1.096603 1.081999 2.056666 52 0 0 0 0
-0.5031349 1.475371 2.05323 70 0 0 0 0
-1.013034 1.318554 2.057307 80 0 0 0 0
-0.626016 1.419571 2.055764 74 0 0 0 0
-1.099981 1.202576 2.054143 74 0 0 0 0
-0.7458408 1.344365 2.058578 73 0 0 0 0
-1.17785 1.072118 2.05195 57 0 0 0 0
-1.246423 0.9301817 2.056378 72 0 0 0 0
-1.212103 1.204232 2.053868 75 0 0 0 0
-1.284649 1.074264 2.059701 59 0 0 0 0
-1.340464 0.926406 2.057403 84 0 0 0 0
-1.379248 0.7642718 2.054776 75 0 0 0 0
-1.407866 1.071352 2.056969 67 0 0 0 0
-1.451666 0.9203866 2.054618 81 0 0 0 0
-1.482366 0.7598634 2.054008 78 0 0 0 0
-1.499728 0.5916033 2.061577 71 0 0 0 0
-1.590717 0.9115822 2.056494 86 0 0 0 0
-1.602726 0.7484701 2.047512 76 0 0 0 0
-1.614811 0.5840324 2.061708 72 0 0 0 0
-1.596471 0.4071528 2.060106 71 0 0 0 0
-1.766206 0.7330902 2.063386 53 0 0 0 0
-1.756807 0.5660166 2.063998 54 0 0 0 0
-1.720711 0.391274 2.055976 96 0 0 0 0
-1.672265 0.2158697 2.056499 49 0 0 0 0
-1.913191 0.5256854 2.055515 59 0 0 0 0
-1.878523 0.3593326 2.062377 101 0 0 0 0
-1.816184 0.1884471 2.060141 98 0 0 0 0
-1.738643 0.01961472 2.062775 86 0 0 0 0
-2.05258 0.3013802 2.061453 101 0 0 0 0
-1.978253 0.1375856 2.059058 97 0 0 0 0
-1.888763 -0.02397002 2.060552 112 0 0 0 0
-1.772589 -0.1800483 2.053862 71 0 0 0 0
-2.165106 0.05453368 2.062047 106 0 0 0 0
-2.063617 -0.09796554 2.063753 117 0 0 0 0
-1.931704 -0.2441382 2.052142 75 0 0 0 0
-1.796203 -0.3826123 2.05412 73 0 0 0 0
-2.243886 -0.2096538 2.055906 60 0 0 0 0
-2.111485 -0.3446299 2.055614 74 0 0 0 0
-1.96217 -0.4701658 2.053374 74 0 0 0 0
-1.806527 -0.5861787 2.059812 67 0 0 0 0
-2.299237 -0.4875259 2.057493 71 0 0 0 0
-2.133183 -0.5987623 2.049139 67 0 0 0 0
-1.966678 -0.7010468 2.052645 68 0 0 0 0
-2.041261 -1.389104 2.049733 57 0 0 0 0
-1.792148 -0.7893699 2.057453 52 0 0 0 0
-1.836203 -1.392696 2.046937 20 0 0 0 0
-2.316754 -0.7767306 2.05338 67 0 0 0 0
-1.651472 -1.394395 2.061612 16 0 0 0 0
-2.143217 -0.8640735 2.058413 66 0 0 0 0
-2.161395 -1.668847 2.057639 53 0 0 0 0
-1.952011 -0.9347776 2.0557 76 0 0 0 0
-1.954314 -1.65241 2.056515 37 0 0 0 0
-1.75593 -0.9898016 2.050666 74 0 0 0 0
-1.756176 -1.626167 2.057605 45 0 0 0 0
-2.30301 -1.074227 2.054591 67 0 0 0 0
-1.563234 -1.583896 2.054806 32 0 0 0 0
-2.10776 -1.128031 2.053895 71 0 0 0 0
-2.031477 -1.95521 2.06139 36 0 0 0 0
-1.907595 -1.166341 2.05186 75 0 0 0 0
-1.829608 -1.902534 2.057146 39 0 0 0 0
-1.708431 -1.189542 2.050686 67 0 0 0 0
-1.639572 -1.842582 2.057809 39 0 0 0 0
-1.396968 -2.64361 2.04627 52 0 0 0 0
-2.248373 -1.371257 2.052214 66 0 0 0 0
-1.458861 -1.769002 2.05124 62 0 0 0 0
-1.264093 -2.522419 2.047569 46 0 0 0 0
-1.851082 -2.210967 2.052611 56 0 0 0 0
-1.144287 -2.400887 2.047421 56 0 0 0 0
-1.665241 -2.126937 2.04985 56 0 0 0 0
-1.043345 -2.28702 2.050653 49 0 0 0 0
-1.49426 -2.041534 2.051 54 0 0 0 0
-1.120996 -2.787761 2.031349 76 0 0 0 0
-1.34125 -1.953225 2.053422 55 0 0 0 0
-1.030303 -2.686477 2.052982 46 0 0 0 0
-1.642363 -2.447135 2.052514 51 0 0 0 0
-0.9424574 -2.562071 2.05466 44 0 0 0 0
-1.476724 -2.334949 2.046724 44 0 0 0 0
-0.8687444 -2.442053 2.053019 29 0 0 0 0
-1.330746 -2.230376 2.049449 59 0 0 0 0
-0.845535 -2.940935 2.053448 39 0 0 0 0
-1.198047 -2.119435 2.045764 54 0 0 0 0
-0.7757732 -2.812083 2.053637 42 0 0 0 0
-0.7170335 -2.689152 2.053148 44 0 0 0 0
-0.6724024 -2.573742 2.049764 42 0 0 0 0
-0.5441808 -3.01544 2.05171 39 0 0 0 0
-0.5045546 -2.89396 2.048656 37 0 0 0 0
-0.4766409 -2.78892 2.05213 36 0 0 0 0
-0.4608179 -2.695513 2.052869 39 0 0 0 0
-0.2389119 -3.043244 2.050504 19 0 0 0 0
-0.2279375 -2.952557 2.054997 21 0 0 0 0
-0.2241748 -2.864888 2.054116 27 0 0 0 0
-0.2295342 -2.786695 2.04977 28 0 0 0 0
0.06144188 -3.032178 2.053796 25 0 0 0 0
0.0521047 -2.95811 2.049848 25 0 0 0 0
0.03701141 -2.900281 2.051207 24 0 0 0 0
0.01567584 -2.851364 2.046037 24 0 0 0 0
0.3517014 -2.977392 2.057621 25 0 0 0 0
0.3270686 -2.924047 2.045273 28 0 0 0 0
0.3011522 -2.904272 2.049033 27 0 0 0 0
0.272055 -2.89672 2.047552 25 0 0 0 0
0.6244612 -2.872931 2.052197 37 0 0 0 0
0.5941439 -2.861319 2.045423 34 0 0 0 0
0.5674606 -2.882893 2.052594 32 0 0 0 0
0.5371214 -2.899351 2.043565 29 0 0 0 0
0.8743428 -2.73984 2.052091 41 0 0 0 0
0.8514292 -2.774416 2.052578 37 0 0 0 0
0.8285052 -2.819005 2.052189 38 0 0 0 0
0.8072892 -2.873283 2.043788 40 0 0 0 0
1.097034 -2.576642 2.049607 44 0 0 0 0
1.087226 -2.643931 2.050509 42 0 0 0 0
1.078334 -2.719874 2.048719 42 0 0 0 0
1.075363 -2.807178 2.04251 48 0 0 0 0
1.294866 -2.396739 2.051302 49 0 0 0 0
1.299879 -2.482288 2.046118 45 0 0 0 0
1.314185 -2.588342 2.046868 45 0 0 0 0
1.333144 -2.698792 2.038452 52 0 0 0 0
1.461487 -2.196987 2.050866 45 0 0 0 0
1.49275 -2.308893 2.04983 43 0 0 0 0
2.037838 -1.807401 2.047561 46 0 0 0 0
1.534065 -2.433123 2.049117 38 0 0 0 0
2.184144 -1.940768 2.043978 49 0 0 0 0
1.580009 -2.558616 2.038813 51 0 0 0 0
1.862031 -1.342757 2.060015 27 0 0 0 0
1.600092 -1.988086 2.051246 50 0 0 0 0
2.01184 -1.463422 2.0699 29 0 0 0 0
1.65836 -2.111105 2.049066 45 0 0 0 0
2.15257 -1.567909 2.053672 54 0 0 0 0
1.723475 -2.239444 2.04255 47 0 0 0 0
2.322754 -1.681617 2.047762 46 0 0 0 0
1.807778 -2.383774 2.039371 53 0 0 0 0
1.89328 -1.124031 2.05433 40 0 0 0 0
1.710666 -1.772987 2.051886 52 0 0 0 0
2.053603 -1.21928 2.053326 53 0 0 0 0
1.795938 -1.899071 2.049065 52 0 0 0 0
2.23203 -1.315041 2.054559 57 0 0 0 0
1.894161 -2.032982 2.044246 53 0 0 0 0
2.420131 -1.402225 2.04786 58 0 0 0 0
2.009416 -2.1741 2.03942 52 0 0 0 0
2.073884 -0.5323761 2.05315 63 0 0 0 0
1.908699 -0.9131508 2.052886 61 0 0 0 0
1.80674 -1.564269 2.065141 24 0 0 0 0
2.274122 -0.5407915 2.054761 69 0 0 0 0
2.085073 -0.9875383 2.054171 65 0 0 0 0
1.918966 -1.68715 2.060831 36 0 0 0 0
2.476079 -0.5327901 2.050245 62 0 0 0 0
2.276425 -1.055806 2.054998 60 0 0 0 0
1.857339 -0.3264381 2.056985 62 0 0 0 0
2.478499 -1.113716 2.049208 63 0 0 0 0
2.03213 -0.3156106 2.048996 66 0 0 0 0
1.910322 -0.7112814 2.056401 63 0 0 0 0
2.226406 -0.2930221 2.053659 74 0 0 0 0
2.09147 -0.7574529 2.053669 62 0 0 0 0
2.418324 -0.2536552 2.050387 75 0 0 0 0
2.285574 -0.794376 2.050133 69 0 0 0 0
1.591648 0.3485145 2.062927 47 0 0 0 0
1.804657 -0.1452077 2.052655 71 0 0 0 0
2.496791 -0.8218011 2.049748 60 0 0 0 0
1.702375 0.4502147 2.060436 38 0 0 0 0
1.973544 -0.1076785 2.048937 63 0 0 0 0
1.892889 -0.5151698 2.058571 66 0 0 0 0
1.809207 0.5644932 2.061499 54 0 0 0 0
2.151614 -0.05594433 2.050597 71 0 0 0 0
1.896699 0.6884425 2.05498 63 0 0 0 0
2.319328 0.01156505 2.044452 70 0 0 0 0
1.493149 0.495714 2.062135 49 0 0 0 0
1.744175 0.02702609 2.053045 75 0 0 0 0
1.576792 0.6088981 2.058826 45 0 0 0 0
1.901157 0.09025919 2.05365 66 0 0 0 0
1.659866 0.7361251 2.06737 46 0 0 0 0
2.054964 0.1663869 2.050718 74 0 0 0 0
1.719422 0.8688474 2.063628 40 0 0 0 0
2.205816 0.2594021 2.050074 75 0 0 0 0
1.38689 0.6337268 2.067051 60 0 0 0 0
1.67386 0.1914233 2.057444 58 0 0 0 0
1.448808 0.7587006 2.071933 37 0 0 0 0
1.818085 0.2776496 2.065966 48 0 0 0 0
1.495477 0.8878846 2.071092 39 0 0 0 0
1.940492 0.3738059 2.054831 70 0 0 0 0
1.523018 1.020711 2.06763 40 0 0 0 0
2.061179 0.4857326 2.051842 71 0 0 0 0
1.262178 0.7588165 2.060064 70 0 0 0 0
1.289749 0.8814455 2.056708 57 0 0 0 0
1.312812 1.013809 2.066579 47 0 0 0 0
1.310307 1.140849 2.062203 38 0 0 0 0
1.134918 0.8777364 2.064233 80 0 0 0 0
0.9891541 0.9770283 2.054215 69 0 0 0 0
1.132276 0.9933568 2.055665 65 0 0 0 0
0.9669985 1.090367 2.058216 72 0 0 0 0
1.122076 1.115942 2.058902 84 0 0 0 0
0.9307653 1.202077 2.060435 77 0 0 0 0
1.094839 1.236704 2.061456 67 0 0 0 0
0.8774233 1.305271 2.059687 72 0 0 0 0
0.8430306 1.072182 2.060749 79 0 0 0 0
0.7936566 1.16949 2.058729 73 0 0 0 0
0.7344419 1.265047 2.060845 71 0 0 0 0
0.6601074 1.350128 2.059545 63 0 0 0 0
0.6847159 1.151155 2.061651 78 0 0 0 0
0.6165286 1.234526 2.063855 56 0 0 0 0
0.53714 1.307802 2.060523 79 0 0 0 0
0.4458255 1.369682 2.058565 69 0 0 0 0
0.5172863 1.213585 2.058766 54 0 0 0 0
0.4330838 1.274925 2.059477 74 0 0 0 0
0.3399771 1.329788 2.062373 76 0 0 0 0
0.2378446 1.369703 2.063819 81 0 0 0 0
0.3440775 1.262905 2.060758 85 0 0 0 0
0.2467653 1.299645 2.057337 69 0 0 0 0
0.143796 1.331749 2.06243 79 0 0 0 0
0.03559732 1.346148 2.064398 54 0 0 0 0
0.1636382 1.293535 2.059521 85 0 0 0 0
0.06046474 1.308505 2.05832 66 0 0 0 0
-0.04760469 1.310926 2.059014 79 0 0 0 0
-0.1585372 1.299637 2.062319 75 0 0 0 0
-0.02035947 1.310679 2.065012 88 0 0 0 0
-0.1265792 1.298738 2.060876 74 0 0 0 0
-0.2355648 1.276644 2.062058 79 0 0 0 0
-0.7535151 1.059867 2.058994 79 0 0 0 0
-0.3427287 1.234293 2.057297 71 0 0 0 0
-0.8241314 0.953585 2.063082 71 0 0 0 0
-0.2085843 1.304785 2.063253 77 0 0 0 0
-0.7757814 1.170622 2.060471 80 0 0 0 0
-0.3118936 1.266135 2.054964 76 0 0 0 0
-0.8447857 1.067186 2.054848 78 0 0 0 0
-0.4166282 1.221744 2.060923 78 0 0 0 0
-0.9064317 0.9560147 2.057653 79 0 0 0 0
-0.5155485 1.156124 2.060595 73 0 0 0 0
-0.9569417 0.8331351 2.062891 75 0 0 0 0
-0.3977751 1.28064 2.061133 77 0 0 0 0
-0.9607022 1.08591 2.060973 72 0 0 0 0
-0.4948346 1.219699 2.057542 73 0 0 0 0
-1.010556 0.9666702 2.057706 79 0 0 0 0
-0.5904923 1.15082 2.063596 75 0 0 0 0
-1.052086 0.8408666 2.062032 80 0 0 0 0
-0.6763682 1.062873 2.062595 74 0 0 0 0
-1.074818 0.7009324 2.059879 74 0 0 0 0
-1.440815 0.5565997 2.057332 80 0 0 0 0
-0.5878185 1.236707 2.06141 80 0 0 0 0
-1.139529 0.9796475 2.062244 40 0 0 0 0
-1.404224 0.4100521 2.061748 86 0 0 0 0
-0.6747047 1.154838 2.060581 75 0 0 0 0
-1.165425 0.8465296 2.056414 83 0 0 0 0
-1.343817 0.2623473 2.060921 72 0 0 0 0
-1.182868 0.7092382 2.061679 88 0 0 0 0
-1.60882 0.5305907 2.059099 73 0 0 0 0
-1.179451 0.5625491 2.062297 86 0 0 0 0
-1.556505 0.387352 2.056384 72 0 0 0 0
-1.307391 0.8504407 2.06077 84 0 0 0 0
-1.489035 0.2453758 2.057379 79 0 0 0 0
-1.312057 0.7101828 2.059871 79 0 0 0 0
-1.40161 0.1056048 2.056977 78 0 0 0 0
-1.298681 0.5646888 2.0593 83 0 0 0 0
-1.737391 0.3417077 2.060039 98 0 0 0 0
-1.271051 0.4159667 2.06468 68 0 0 0 0
-1.652277 0.2034177 2.051861 76 0 0 0 0
-1.4642 0.6998837 2.058886 88 0 0 0 0
-1.5607 0.07096085 2.055734 76 0 0 0 0
-1.45103 -0.05592304 2.061978 75 0 0 0 0
-1.846862 0.1342583 2.061795 105 0 0 0 0
-1.739542 0.009041305 2.05928 101 0 0 0 0
-1.615241 -0.1090653 2.056418 78 0 0 0 0
-1.484546 -0.2190018 2.064014 68 0 0 0 0
-1.932344 -0.08922049 2.061596 112 0 0 0 0
-1.794285 -0.1971447 2.052983 69 0 0 0 0
-1.654746 -0.2963013 2.057174 73 0 0 0 0
-1.501205 -0.384425 2.061878 65 0 0 0 0
-1.983108 -0.3254299 2.052512 78 0 0 0 0
-1.827911 -0.4099108 2.048673 77 0 0 0 0
-1.674196 -0.4868007 2.058552 75 0 0 0 0
-1.504825 -0.5490144 2.0604 71 0 0 0 0
-2.013487 -0.57051 2.052139 79 0 0 0 0
-1.845232 -0.632169 2.051081 72 0 0 0 0
-1.675722 -0.6819803 2.057309 82 0 0 0 0
-1.49735 -0.7170808 2.060876 72 0 0 0 0
-2.017729 -0.8252918 2.05398 73 0 0 0 0
-1.833699 -0.8557557 2.049033 76 0 0 0 0
-1.6553 -0.8769136 2.05422 76 0 0 0 0
-1.472997 -0.8835604 2.057924 59 0 0 0 0
-1.988918 -1.081337 2.056303 71 0 0 0 0
-1.798063 -1.079834 2.048987 76 0 0 0 0
-1.620579 -1.074277 2.058249 71 0 0 0 0
-1.436608 -1.04921 2.055668 63 0 0 0 0
-1.923231 -1.332792 2.054971 77 0 0 0 0
-1.737321 -1.303417 2.051091 68 0 0 0 0
-1.562014 -1.267883 2.057967 70 0 0 0 0
-1.387147 -1.215194 2.054867 65 0 0 0 0
-1.828384 -1.579115 2.057447 46 0 0 0 0
-1.650572 -1.520141 2.053389 41 0 0 0 0
-1.474018 -1.447892 2.043746 83 0 0 0 0
-1.321781 -1.378872 2.051774 57 0 0 0 0
-1.696744 -1.808204 2.05467 36 0 0 0 0
-1.530227 -1.719703 2.045448 38 0 0 0 0
-1.377378 -1.630763 2.045001 73 0 0 0 0
-1.243202 -1.543362 2.053153 66 0 0 0 0
-1.533221 -2.014653 2.04982 58 0 0 0 0
-0.909509 -2.013551 2.055791 31 0 0 0 0
-1.389606 -1.90853 2.044845 61 0 0 0 0
-0.908174 -2.48877 2.055411 47 0 0 0 0
-1.263565 -1.808431 2.050632 70 0 0 0 0
-0.8466219 -2.36721 2.051528 50 0 0 0 0
-1.146847 -1.701772 2.048866 61 0 0 0 0
-0.7987188 -2.258356 2.055968 57 0 0 0 0
-1.345541 -2.20077 2.049897 54 0 0 0 0
-0.7601047 -2.153139 2.052959 51 0 0 0 0
-1.229821 -2.085084 2.04886 62 0 0 0 0
-0.6647999 -2.576067 2.05365 44 0 0 0 0
-1.127908 -1.973315 2.052724 61 0 0 0 0
-0.6320248 -2.47161 2.054804 40 0 0 0 0
-1.037217 -1.859479 2.051314 60 0 0 0 0
-0.6082312 -2.37326 2.056177 50 0 0 0 0
-1.136762 -2.362259 2.053799 56 0 0 0 0
-0.5927318 -2.279527 2.049877 51 0 0 0 0
-1.049042 -2.242536 2.053622 58 0 0 0 0
-0.4163282 -2.632699 2.056475 39 0 0 0 0
0.04070581 -2.572999 2.05267 29 0 0 0 0
-0.9704962 -2.118961 2.049445 64 0 0 0 0
-0.4056131 -2.545008 2.055332 39 0 0 0 0
0.01563673 -2.566617 2.051817 30 0 0 0 0
-0.4029145 -2.462253 2.053574 35 0 0 0 0
0.3170249 -2.578742 2.054861 26 0 0 0 0
-0.4081 -2.399118 2.053507 44 0 0 0 0
0.2950392 -2.579787 2.055536 29 0 0 0 0
-0.1651129 -2.648954 2.055633 33 0 0 0 0
0.2709458 -2.587345 2.053025 30 0 0 0 0
-0.1724393 -2.582134 2.052275 34 0 0 0 0
0.2477502 -2.608469 2.046892 26 0 0 0 0
-0.1863774 -2.536233 2.057443 34 0 0 0 0
0.5400479 -2.5017 2.056508 36 0 0 0 0
-0.2045131 -2.499426 2.056981 36 0 0 0 0
0.5208748 -2.525946 2.050643 34 0 0 0 0
0.07995591 -2.628363 2.053864 30 0 0 0 0
0.5038372 -2.563889 2.047193 32 0 0 0 0
0.06287511 -2.596837 2.054399 31 0 0 0 0
0.4922518 -2.633101 2.052885 32 0 0 0 0
0.7458911 -2.396686 2.055988 39 0 0 0 0
0.7388871 -2.451862 2.051933 42 0 0 0 0
0.7360086 -2.522694 2.049843 42 0 0 0 0
0.739029 -2.606096 2.04412 37 0 0 0 0
0.9305432 -2.266661 2.052898 48 0 0 0 0
0.9437898 -2.35115 2.052675 39 0 0 0 0
0.9620876 -2.449936 2.0526 49 0 0 0 0
0.989213 -2.558948 2.047184 42 0 0 0 0
1.096261 -2.124897 2.052785 50 0 0 0 0
1.133639 -2.229101 2.053982 46 0 0 0 0
1.174788 -2.33924 2.048814 42 0 0 0 0
1.231046 -2.466969 2.044809 47 0 0 0 0
1.23983 -1.96636 2.050617 51 0 0 0 0
1.302219 -2.081669 2.050757 48 0 0 0 0
1.376628 -2.208123 2.050347 45 0 0 0 0
1.464983 -2.344364 2.047534 43 0 0 0 0
1.365663 -1.805057 2.055794 55 0 0 0 0
1.456018 -1.923231 2.054282 52 0 0 0 0
1.55729 -2.049048 2.049871 56 0 0 0 0
1.675524 -2.18071 2.043681 48 0 0 0 0
1.472384 -1.636183 2.059087 37 0 0 0 0
1.584519 -1.746299 2.052125 51 0 0 0 0
1.716912 -1.866686 2.050563 57 0 0 0 0
1.863017 -1.986712 2.041396 51 0 0 0 0
1.561211 -1.463801 2.065793 29 0 0 0 0
1.706733 -1.570765 2.068289 27 0 0 0 0
1.861941 -1.675229 2.062726 32 0 0 0 0
2.027738 -1.771721 2.047048 52 0 0 0 0
1.629894 -1.287699 2.069974 29 0 0 0 0
1.787963 -1.370396 2.062312 28 0 0 0 0
1.97561 -1.460893 2.068297 28 0 0 0 0
2.156238 -1.531464 2.049814 56 0 0 0 0
1.662637 -1.097125 2.051798 60 0 0 0 0
1.853524 -1.168704 2.065311 31 0 0 0 0
2.042526 -1.225016 2.057344 55 0 0 0 0
2.246516 -1.272253 2.049483 64 0 0 0 0
1.691003 -0.9185677 2.048836 59 0 0 0 0
1.700693 -0.3997121 2.055012 66 0 0 0 0
1.885467 -0.9590362 2.053838 66 0 0 0 0
1.880681 -0.3516323 2.054944 64 0 0 0 0
2.084548 -0.9866361 2.04989 68 0 0 0 0
2.062572 -0.2890464 2.053473 74 0 0 0 0
2.297699 -1.004553 2.048236 65 0 0 0 0
2.234112 -0.2087241 2.044567 69 0 0 0 0
1.709598 -0.7431207 2.051785 72 0 0 0 0
1.673129 -0.2315206 2.054343 61 0 0 0 0
1.904875 -0.7536031 2.054284 73 0 0 0 0
1.834888 -0.1572566 2.050789 70 0 0 0 0
2.099741 -0.7490807 2.047418 70 0 0 0 0
1.995668 -0.06905306 2.048895 73 0 0 0 0
2.314955 -0.7341933 2.049857 68 0 0 0 0
2.150404 0.03541186 2.047263 73 0 0 0 0
1.710079 -0.5691353 2.052119 71 0 0 0 0
1.632629 -0.06865344 2.055216 73 0 0 0 0
1.756776 0.6582972 2.061623 70 0 0 0 0
1.901211 -0.5498325 2.053293 68 0 0 0 0
1.773229 0.0294486 2.049885 68 0 0 0 0
1.439457 0.3944368 2.06499 56 0 0 0 0
2.097239 -0.5169968 2.052761 70 0 0 0 0
1.91516 0.1400093 2.053989 76 0 0 0 0
1.500924 0.5303279 2.060781 45 0 0 0 0
2.296221 -0.4668898 2.052327 48 0 0 0 0
2.03968 0.2625751 2.048834 67 0 0 0 0
1.549431 0.6730577 2.058382 64 0 0 0 0
1.582237 0.09067736 2.058867 60 0 0 0 0
1.587248 0.8213314 2.064586 41 0 0 0 0
1.702971 0.2072029 2.05883 46 0 0 0 0
1.340696 0.5344733 2.058755 73 0 0 0 0
1.815758 0.3345129 2.06115 48 0 0 0 0
1.376312 0.6726758 2.059065 69 0 0 0 0
1.908166 0.4716679 2.054937 68 0 0 0 0
1.402202 0.8175935 2.067143 43 0 0 0 0
1.515717 0.2456035 2.059267 48 0 0 0 0
1.400529 0.9561884 2.060857 42 0 0 0 0
1.609448 0.375193 2.060736 51 0 0 0 0
1.234182 0.6663046 2.058404 60 0 0 0 0
1.692105 0.5131676 2.061177 48 0 0 0 0
1.240849 0.802268 2.060456 78 0 0 0 0
1.230316 0.9351788 2.057518 74 0 0 0 0
1.204903 1.065521 2.05774 74 0 0 0 0
1.113672 0.7880799 2.057721 75 0 0 0 0
1.092196 0.913707 2.055875 78 0 0 0 0
1.05996 1.038185 2.060349 75 0 0 0 0
1.00854 1.153523 2.059779 73 0 0 0 0
0.9810802 0.8982117 2.054292 78 0 0 0 0
0.9400156 1.014854 2.062725 74 0 0 0 0
0.8815538 1.12133 2.060758 82 0 0 0 0
0.8091806 1.216393 2.060234 69 0 0 0 0
0.8398441 0.9995794 2.059733 80 0 0 0 0
0.7755898 1.096074 2.062214 74 0 0 0 0
0.6982681 1.183872 2.062547 76 0 0 0 0
0.6109763 1.258494 2.062818 81 0 0 0 0
0.6853966 1.084942 2.058589 77 0 0 0 0
0.603101 1.159578 2.058664 70 0 0 0 0
0.5128897 1.224788 2.060324 60 0 0 0 0
0.4147851 1.276457 2.063806 72 0 0 0 0
0.5220509 1.155774 2.059119 75 0 0 0 0
0.4278654 1.207826 2.060482 52 0 0 0 0
0.3277156 1.248679 2.061997 81 0 0 0 0
0.2213265 1.269623 2.055915 82 0 0 0 0
0.3485457 1.20631 2.05417 36 0 0 0 0
0.2475918 1.237201 2.059942 78 0 0 0 0
0.1424529 1.251933 2.059764 86 0 0 0 0
0.03749248 1.252776 2.063061 70 0 0 0 0
0.1705624 1.248329 2.062044 78 0 0 0 0
0.06624922 1.249129 2.060223 68 0 0 0 0
-0.03705901 1.233587 2.053219 64 0 0 0 0
-0.1406758 1.21273 2.063553 82 0 0 0 0
-0.01370701 1.267917 2.064906 79 0 0 0 0
-0.1158159 1.243401 2.062266 73 0 0 0 0
-0.2141573 1.201955 2.052197 67 0 0 0 0
-0.3071121 1.149637 2.051059 44 0 0 0 0
-0.2030776 1.263652 2.059366 81 0 0 0 0
-0.77314 1.133921 2.058363 74 0 0 0 0
-0.2968823 1.218633 2.062699 78 0 0 0 0
-0.8208255 1.031182 2.059129 76 0 0 0 0
-0.385174 1.152892 2.051706 58 0 0 0 0
-0.8518611 0.9140769 2.049387 65 0 0 0 0
-0.4659009 1.081437 2.05461 61 0 0 0 0
-0.872395 0.7955693 2.052206 66 0 0 0 0
-0.3940769 1.243577 2.062098 85 0 0 0 0
-0.9598911 1.050518 2.062175 83 0 0 0 0
-0.4760788 1.172437 2.057981 76 0 0 0 0
-0.9808253 0.9309218 2.054617 74 0 0 0 0
-0.5490158 1.08996 2.054415 64 0 0 0 0
-0.9933769 0.8094918 2.056566 83 0 0 0 0
-0.6128449 0.9969422 2.052568 66 0 0 0 0
-0.9842144 0.6804041 2.050096 63 0 0 0 0
-1.59886 0.4905559 2.055763 78 0 0 0 0
-0.5833474 1.196736 2.055618 82 0 0 0 0
-1.139581 0.9447746 2.06555 51 0 0 0 0
-1.522387 0.3719848 2.05677 83 0 0 0 0
-0.6501536 1.108621 2.054816 69 0 0 0 0
-1.139236 0.8198272 2.064286 79 0 0 0 0
-1.433697 0.2603835 2.063707 81 0 0 0 0
-0.7050177 1.008754 2.051316 69 0 0 0 0
-1.123879 0.6908115 2.062676 78 0 0 0 0
-1.323356 0.1544561 2.061696 71 0 0 0 0
-0.7486427 0.9017244 2.053146 65 0 0 0 0
-1.087705 0.5596592 2.055766 47 0 0 0 0
-1.727215 0.3020347 2.059765 110 0 0 0 0
-1.304511 0.8121217 2.060189 83 0 0 0 0
-1.620956 0.1945011 2.055574 76 0 0 0 0
-1.277198 0.6843127 2.057317 81 0 0 0 0
-1.508346 0.09630825 2.061049 78 0 0 0 0
-1.239607 0.5581825 2.061486 84 0 0 0 0
-1.376029 0.007527722 2.059378 67 0 0 0 0
-1.182031 0.4321166 2.064878 80 0 0 0 0
-1.83358 0.09552393 2.061527 109 0 0 0 0
-1.459287 0.6606964 2.056981 88 0 0 0 0
-1.706266 0.004762105 2.05968 92 0 0 0 0
-1.405902 0.535547 2.055619 74 0 0 0 0
-1.567955 -0.07496969 2.058468 81 0 0 0 0
-1.345109 0.4144566 2.064919 81 0 0 0 0
-1.421484 -0.1434421 2.062121 47 0 0 0 0
-1.258719 0.2962916 2.063575 72 0 0 0 0
-1.915869 -0.127376 2.063308 128 0 0 0 0
-1.761959 -0.1961679 2.052347 80 0 0 0 0
-1.613406 -0.2540109 2.058949 78 0 0 0 0
-1.454923 -0.2984901 2.064634 64 0 0 0 0
-1.963501 -0.3606538 2.054623 81 0 0 0 0
-1.800414 -0.4042405 2.05011 78 0 0 0 0
-1.638966 -0.4375294 2.05576 76 0 0 0 0
-1.469739 -0.4547562 2.057011 60 0 0 0 0
-1.990788 -0.6026105 2.053672 83 0 0 0 0
-1.821638 -0.6204433 2.052778 76 0 0 0 0
-1.653245 -0.6274173 2.059063 83 0 0 0 0
-1.480106 -0.6181489 2.060088 67 0 0 0 0
-1.991878 -0.8514881 2.05649 73 0 0 0 0
-1.818777 -0.8420337 2.056534 73 0 0 0 0
-1.64378 -0.8190551 2.054989 75 0 0 0 0
-1.476535 -0.7852405 2.060895 60 0 0 0 0
-1.958072 -1.100863 2.055799 70 0 0 0 0
-1.784208 -1.062218 2.052172 74 0 0 0 0
-1.616217 -1.013157 2.052788 76 0 0 0 0
-1.458984 -0.9552339 2.0606 64 0 0 0 0
-1.891345 -1.344844 2.052791 68 0 0 0 0
-1.727489 -1.281109 2.051256 65 0 0 0 0
-1.577245 -1.212214 2.060403 65 0 0 0 0
-1.425533 -1.127751 2.057162 66 0 0 0 0
-1.801266 -1.586492 2.05847 41 0 0 0 0
-1.651462 -1.499459 2.057828 46 0 0 0 0
-1.50305 -1.398749 2.048514 74 0 0 0 0
-1.377006 -1.302884 2.055585 65 0 0 0 0
-1.675352 -1.812342 2.059487 39 0 0 0 0
-1.537107 -1.696621 2.047429 32 0 0 0 0
-1.418286 -1.588669 2.049944 74 0 0 0 0
-0.886023 -2.369339 2.055313 33 0 0 0 0
-1.312413 -1.479964 2.054131 67 0 0 0 0
-0.865382 -2.266499 2.054619 49 0 0 0 0
-1.516721 -2.012633 2.055022 43 0 0 0 0
-0.8565156 -2.178756 2.05866 57 0 0 0 0
-1.405383 -1.888346 2.046666 61 0 0 0 0
0.2676826 -2.61404 2.055178 29 0 0 0 0
-0.6832514 -2.566285 2.053822 44 0 0 0 0
-1.311516 -1.7736 2.051452 67 0 0 0 0
0.2507794 -2.643521 2.055353 29 0 0 0 0
-0.6764722 -2.481125 2.055419 37 0 0 0 0
-1.229757 -1.658336 2.053757 58 0 0 0 0
0.2338339 -2.68381 2.053485 27 0 0 0 0
-0.6757777 -2.398561 2.054728 44 0 0 0 0
-1.334132 -2.189683 2.05096 55 0 0 0 0
0.220762 -2.735504 2.047266 23 0 0 0 0
-0.6840108 -2.329359 2.054914 46 0 0 0 0
1.220256 -2.07879 2.046681 55 0 0 0 0
-1.252547 -2.068577 2.049286 60 0 0 0 0
0.4884733 -2.545964 2.051219 35 0 0 0 0
-0.4438341 -2.626368 2.054395 42 0 0 0 0
1.318855 -2.198804 2.049609 46 0 0 0 0
-1.185657 -1.95294 2.055304 58 0 0 0 0
0.4836468 -2.603845 2.050635 35 0 0 0 0
-0.4530158 -2.564418 2.055282 43 0 0 0 0
1.432331 -2.327237 2.04832 42 0 0 0 0
-1.127958 -1.837386 2.056576 62 0 0 0 0
0.4839139 -2.677191 2.050996 32 0 0 0 0
-0.4691846 -2.510539 2.055935 45 0 0 0 0
1.563725 -2.463283 2.043866 44 0 0 0 0
-1.133396 -2.346407 2.05207 50 0 0 0 0
0.4902585 -2.769928 2.051518 29 0 0 0 0
-0.4893308 -2.471783 2.055918 36 0 0 0 0
1.361991 -1.92836 2.050234 59 0 0 0 0
-1.079693 -2.230866 2.053497 54 0 0 0 0
0.6974145 -2.461593 2.052853 46 0 0 0 0
-0.2032779 -2.661082 2.060748 36 0 0 0 0
1.490583 -2.044339 2.052746 37 0 0 0 0
-1.034171 -2.112458 2.050697 57 0 0 0 0
0.7115709 -2.540415 2.049593 40 0 0 0 0
-0.2225834 -2.622561 2.056579 36 0 0 0 0
1.628747 -2.157256 2.044256 52 0 0 0 0
-1.000524 -2.00466 2.05043 52 0 0 0 0
0.7328891 -2.637031 2.048792 37 0 0 0 0
-0.244809 -2.594435 2.053613 34 0 0 0 0
1.794196 -2.282562 2.041513 42 0 0 0 0
-0.9156393 -2.475185 2.055766 49 0 0 0 0
0.7641736 -2.750502 2.045426 37 0 0 0 0
-0.2709073 -2.584938 2.052364 27 0 0 0 0
1.485624 -1.766437 2.052605 50 0 0 0 0
0.8902573 -2.354728 2.05429 42 0 0 0 0
0.03660018 -2.647487 2.05387 28 0 0 0 0
1.638028 -1.865496 2.051271 54 0 0 0 0
0.9306544 -2.457732 2.054585 37 0 0 0 0
0.01444879 -2.640737 2.050927 27 0 0 0 0
1.809437 -1.969588 2.049256 52 0 0 0 0
0.9790001 -2.572498 2.052338 47 0 0 0 0
-0.009526442 -2.649848 2.051164 28 0 0 0 0
1.997579 -2.06839 2.040453 54 0 0 0 0
1.042316 -2.702137 2.047704 41 0 0 0 0
-0.03270293 -2.670003 2.045205 26 0 0 0 0
1.600729 -1.605791 2.067293 29 0 0 0 0
1.062667 -2.220762 2.047407 46 0 0 0 0
1.776069 -1.686525 2.065472 37 0 0 0 0
1.131118 -2.335035 2.047518 43 0 0 0 0
1.957819 -1.755418 2.049344 58 0 0 0 0
